ply
format ascii 1.0
comment Created by CloudCompare v2.11.1 (Anoia)
comment Created 2022/01/16 17:12
obj_info Generated by CloudCompare!
element vertex 779
property float x
property float y
property float z
property float nx
property float ny
property float nz
end_header
-0.192858 -1.80899 -3.02851 0.000979427 -0.999995 0.00293828 
-0.187641 -1.82049 -3.02767 0.000979427 -0.999995 0.00293828 
-0.183323 -1.82349 -3.02745 0.000979427 -0.999995 0.00293828 
-0.179066 -1.82599 -3.02726 0.000979427 -0.999995 0.00293828 
-0.17494 -1.82724 -3.02717 0.000979427 -0.999995 0.00293828 
-0.170843 -1.82824 -3.0271 0.000979427 -0.999995 0.00293828 
-0.16675 -1.82924 -3.02703 0.000979427 -0.999995 0.00293828 
-0.162684 -1.82999 -3.02697 0.000979427 -0.999995 0.00293828 
-0.158599 -1.83099 -3.0269 0.000979427 -0.999995 0.00293828 
-0.154476 -1.83249 -3.02679 0.000979427 -0.999995 0.00293828 
-0.15036 -1.83399 -3.02668 0.000979427 -0.999995 0.00293828 
-0.146311 -1.83474 -3.02662 0.000979427 -0.999995 0.00293828 
-0.142304 -1.83499 -3.0266 0.000979427 -0.999995 0.00293828 
-0.138317 -1.83499 -3.0266 0.000979427 -0.999995 0.00293828 
-0.134366 -1.83449 -3.02664 0.000979427 -0.999995 0.00293828 
-0.130432 -1.83374 -3.0267 0.000979427 -0.999995 0.00293828 
-0.126546 -1.83224 -3.02681 0.000979427 -0.999995 0.00293828 
-0.12267 -1.83049 -3.02693 0.000979427 -0.999995 0.00293828 
-0.118722 -1.82974 -3.02699 0.000979427 -0.999995 0.00293828 
-0.114786 -1.82874 -3.02706 0.000979427 -0.999995 0.00293828 
-0.110816 -1.82824 -3.0271 0.000979427 -0.999995 0.00293828 
-0.106858 -1.82749 -3.02715 0.000979427 -0.999995 0.00293828 
-0.102924 -1.82624 -3.02725 0.000979427 -0.999995 0.00293828 
-0.0989991 -1.82474 -3.02735 0.000979427 -0.999995 0.00293828 
-0.0950932 -1.82274 -3.0275 0.000979427 -0.999995 0.00293828 
-0.0911414 -1.82149 -3.02759 0.000979427 -0.999995 0.00293828 
-0.0871722 -1.82049 -3.02767 0.000979427 -0.999995 0.00293828 
-0.0832439 -1.81849 -3.02781 0.000979427 -0.999995 0.00293828 
-0.0797693 -1.80574 -3.02875 0.000979427 -0.999995 0.00293828 
-0.0758511 -1.80249 -3.02899 0.000979427 -0.999995 0.00293828 
-0.0718317 -1.80149 -3.02906 0.000979427 -0.999995 0.00293828 
-0.0678444 -1.79949 -3.02921 0.000979427 -0.999995 0.00293828 
-0.0640454 -1.79174 -3.02977 0.000979427 -0.999995 0.00293828 
-0.060012 -1.79024 -3.02988 0.000979427 -0.999995 0.00293828 
-0.0559571 -1.78924 -3.02996 0.000979427 -0.999995 0.00293828 
-0.0519186 -1.78749 -3.03009 0.000979427 -0.999995 0.00293828 
-0.0482365 -1.77149 -3.03126 0.000979427 -0.999995 0.00293828 
-0.0451619 -1.72649 -3.03456 0.000979427 -0.999995 0.00293828 
-0.00709853 -1.73899 -3.03364 0.000979427 -0.999995 0.00293828 
-0.0028443 -1.77699 -3.03085 0.000979427 -0.999995 0.00293828 
0.00126123 -1.78924 -3.02996 0.000979427 -0.999995 0.00293828 
0.00533539 -1.79374 -3.02963 0.000979427 -0.999995 0.00293828 
0.00941132 -1.79399 -3.02961 0.000979427 -0.999995 0.00293828 
0.0134843 -1.79449 -3.02957 0.000979427 -0.999995 0.00293828 
0.0174611 -1.80499 -3.0288 0.000979427 -0.999995 0.00293828 
0.0213948 -1.81524 -3.02805 0.000979427 -0.999995 0.00293828 
0.0254181 -1.81574 -3.02802 0.000979427 -0.999995 0.00293828 
0.0294432 -1.81599 -3.028 0.000979427 -0.999995 0.00293828 
0.0334582 -1.81674 -3.02794 0.000979427 -0.999995 0.00293828 
0.0373275 -1.82449 -3.02737 0.000979427 -0.999995 0.00293828 
0.041315 -1.82549 -3.0273 0.000979427 -0.999995 0.00293828 
0.0453166 -1.82574 -3.02728 0.000979427 -0.999995 0.00293828 
0.0493037 -1.82649 -3.02723 0.000979427 -0.999995 0.00293828 
0.0532294 -1.82924 -3.02703 0.000979427 -0.999995 0.00293828 
0.0568929 -1.83999 -3.02624 0.000979427 -0.999995 0.00293828 
0.0607603 -1.84323 -3.026 0.000979427 -0.999995 0.00293828 
0.0646937 -1.84423 -3.02593 0.000979427 -0.999995 0.00293828 
0.0686511 -1.84448 -3.02591 0.000979427 -0.999995 0.00293828 
0.0725874 -1.84523 -3.02585 0.000979427 -0.999995 0.00293828 
0.0765416 -1.84548 -3.02583 0.000979427 -0.999995 0.00293828 
0.0805279 -1.84498 -3.02587 0.000979427 -0.999995 0.00293828 
0.0846793 -1.84099 -3.02616 0.000979427 -0.999995 0.00293828 
0.088702 -1.83999 -3.02624 0.000979427 -0.999995 0.00293828 
0.0926654 -1.84024 -3.02622 0.000979427 -0.999995 0.00293828 
0.0963489 -1.84573 -3.02582 0.000979427 -0.999995 0.00293828 
0.100326 -1.84548 -3.02583 0.000979427 -0.999995 0.00293828 
0.10429 -1.84548 -3.02583 0.000979427 -0.999995 0.00293828 
0.108269 -1.84523 -3.02585 0.000979427 -0.999995 0.00293828 
0.112265 -1.84473 -3.02589 0.000979427 -0.999995 0.00293828 
0.116247 -1.84448 -3.02591 0.000979427 -0.999995 0.00293828 
0.120263 -1.84373 -3.02596 0.000979427 -0.999995 0.00293828 
0.124265 -1.84323 -3.026 0.000979427 -0.999995 0.00293828 
0.128287 -1.84248 -3.02605 0.000979427 -0.999995 0.00293828 
0.132476 -1.83949 -3.02627 0.000979427 -0.999995 0.00293828 
0.137072 -1.83124 -3.02688 0.000979427 -0.999995 0.00293828 
0.141105 -1.83074 -3.02692 0.000979427 -0.999995 0.00293828 
0.145598 -1.82449 -3.02737 0.000979427 -0.999995 0.00293828 
0.151014 -1.80724 -3.02864 0.000979427 -0.999995 0.00293828 
0.157008 -1.78399 -3.03034 0.000979427 -0.999995 0.00293828 
0.164177 -1.74824 -3.03296 0.000979427 -0.999995 0.00293828 
-0.21014 -1.7625 -3.03606 0.000979427 -0.999995 0.00293828 
-0.202629 -1.79349 -3.03372 0.000979427 -0.999995 0.00293828 
-0.197115 -1.80699 -3.0327 0.000979427 -0.999995 0.00293828 
-0.192858 -1.80899 -3.03255 0.000979427 -0.999995 0.00293828 
-0.187666 -1.82024 -3.0317 0.000979427 -0.999995 0.00293828 
-0.183347 -1.82324 -3.03148 0.000979427 -0.999995 0.00293828 
-0.179115 -1.82549 -3.03131 0.000979427 -0.999995 0.00293828 
-0.175012 -1.82649 -3.03123 0.000979427 -0.999995 0.00293828 
-0.170913 -1.82749 -3.03116 0.000979427 -0.999995 0.00293828 
-0.166841 -1.82824 -3.0311 0.000979427 -0.999995 0.00293828 
-0.162773 -1.82899 -3.03104 0.000979427 -0.999995 0.00293828 
-0.158729 -1.82949 -3.031 0.000979427 -0.999995 0.00293828 
-0.154667 -1.83024 -3.03095 0.000979427 -0.999995 0.00293828 
-0.150546 -1.83174 -3.03083 0.000979427 -0.999995 0.00293828 
-0.146431 -1.83324 -3.03072 0.000979427 -0.999995 0.00293828 
-0.142401 -1.83374 -3.03068 0.000979427 -0.999995 0.00293828 
-0.138412 -1.83374 -3.03068 0.000979427 -0.999995 0.00293828 
-0.134459 -1.83324 -3.03072 0.000979427 -0.999995 0.00293828 
-0.130521 -1.83249 -3.03078 0.000979427 -0.999995 0.00293828 
-0.12665 -1.83074 -3.03091 0.000979427 -0.999995 0.00293828 
-0.122737 -1.82949 -3.031 0.000979427 -0.999995 0.00293828 
-0.118803 -1.82849 -3.03108 0.000979427 -0.999995 0.00293828 
-0.114849 -1.82774 -3.03114 0.000979427 -0.999995 0.00293828 
-0.110891 -1.82699 -3.03119 0.000979427 -0.999995 0.00293828 
-0.106945 -1.82599 -3.03127 0.000979427 -0.999995 0.00293828 
-0.102995 -1.82499 -3.03134 0.000979427 -0.999995 0.00293828 
-0.0990531 -1.82374 -3.03144 0.000979427 -0.999995 0.00293828 
-0.0951191 -1.82224 -3.03155 0.000979427 -0.999995 0.00293828 
-0.0911661 -1.82099 -3.03165 0.000979427 -0.999995 0.00293828 
-0.0871959 -1.81999 -3.03172 0.000979427 -0.999995 0.00293828 
-0.0834247 -1.81449 -3.03214 0.000979427 -0.999995 0.00293828 
-0.0799199 -1.80224 -3.03306 0.000979427 -0.999995 0.00293828 
-0.0758919 -1.80149 -3.03312 0.000979427 -0.999995 0.00293828 
-0.0718703 -1.80049 -3.03319 0.000979427 -0.999995 0.00293828 
-0.0679994 -1.79524 -3.03359 0.000979427 -0.999995 0.00293828 
-0.0640797 -1.79074 -3.03393 0.000979427 -0.999995 0.00293828 
-0.0600201 -1.78999 -3.03399 0.000979427 -0.999995 0.00293828 
-0.0559571 -1.78924 -3.03404 0.000979427 -0.999995 0.00293828 
-0.0519047 -1.78799 -3.03414 0.000979427 -0.999995 0.00293828 
-0.048262 -1.7705 -3.03546 0.000979427 -0.999995 0.00293828 
-0.0458744 -1.696 -3.04108 0 0 0 
-0.00717983 -1.717 -3.0395 0 0 0 
-0.00284732 -1.775 -3.03512 0.000979427 -0.999995 0.00293828 
0.00126308 -1.78649 -3.03425 0.000979427 -0.999995 0.00293828 
0.00533467 -1.79399 -3.03368 0.000979427 -0.999995 0.00293828 
0.00941006 -1.79424 -3.03366 0.000979427 -0.999995 0.00293828 
0.0134843 -1.79449 -3.03365 0.000979427 -0.999995 0.00293828 
0.017454 -1.80574 -3.0328 0.000979427 -0.999995 0.00293828 
0.0213919 -1.81549 -3.03206 0.000979427 -0.999995 0.00293828 
0.0254112 -1.81624 -3.032 0.000979427 -0.999995 0.00293828 
0.0294392 -1.81624 -3.032 0.000979427 -0.999995 0.00293828 
0.0334446 -1.81749 -3.03191 0.000979427 -0.999995 0.00293828 
0.0373377 -1.82399 -3.03142 0.000979427 -0.999995 0.00293828 
0.0413262 -1.82499 -3.03134 0.000979427 -0.999995 0.00293828 
0.0453166 -1.82574 -3.03129 0.000979427 -0.999995 0.00293828 
0.0493104 -1.82624 -3.03125 0.000979427 -0.999995 0.00293828 
0.0532948 -1.82699 -3.03119 0.000979427 -0.999995 0.00293828 
0.0569633 -1.83774 -3.03038 0.000979427 -0.999995 0.00293828 
0.0607854 -1.84249 -3.03002 0.000979427 -0.999995 0.00293828 
0.0647294 -1.84324 -3.02997 0.000979427 -0.999995 0.00293828 
0.068689 -1.84349 -3.02995 0.000979427 -0.999995 0.00293828 
0.0726474 -1.84374 -3.02993 0.000979427 -0.999995 0.00293828 
0.0766365 -1.84324 -3.02997 0.000979427 -0.999995 0.00293828 
0.0806832 -1.84149 -3.0301 0.000979427 -0.999995 0.00293828 
0.0847375 -1.83974 -3.03023 0.000979427 -0.999995 0.00293828 
0.0887386 -1.83924 -3.03027 0.000979427 -0.999995 0.00293828 
0.0927291 -1.83899 -3.03029 0.000979427 -0.999995 0.00293828 
0.096641 -1.84024 -3.03019 0.000979427 -0.999995 0.00293828 
0.100382 -1.84449 -3.02987 0.000979427 -0.999995 0.00293828 
0.104333 -1.84474 -3.02985 0.000979427 -0.999995 0.00293828 
0.108314 -1.84449 -3.02987 0.000979427 -0.999995 0.00293828 
0.11228 -1.84449 -3.02987 0.000979427 -0.999995 0.00293828 
0.116263 -1.84424 -3.02989 0.000979427 -0.999995 0.00293828 
0.120263 -1.84374 -3.02993 0.000979427 -0.999995 0.00293828 
0.124282 -1.84299 -3.02999 0.000979427 -0.999995 0.00293828 
0.128305 -1.84224 -3.03004 0.000979427 -0.999995 0.00293828 
0.132349 -1.84124 -3.03012 0.000979427 -0.999995 0.00293828 
0.136753 -1.83549 -3.03055 0.000979427 -0.999995 0.00293828 
0.141086 -1.83099 -3.03089 0.000979427 -0.999995 0.00293828 
0.14536 -1.82749 -3.03116 0.000979427 -0.999995 0.00293828 
0.151095 -1.80624 -3.03276 0.000979427 -0.999995 0.00293828 
0.157761 -1.775 -3.03512 0.000979427 -0.999995 0.00293828 
0.164391 -1.74575 -3.03733 0.000979427 -0.999995 0.00293828 
-0.208977 -1.773 -3.03939 0.000979427 -0.999995 0.00293828 
-0.202493 -1.79475 -3.0377 0.000979427 -0.999995 0.00293828 
-0.196982 -1.80825 -3.03665 0.000979427 -0.999995 0.00293828 
-0.192806 -1.8095 -3.03656 0.000979427 -0.999995 0.00293828 
-0.187692 -1.82 -3.03574 0.000979427 -0.999995 0.00293828 
-0.183422 -1.8225 -3.03555 0.000979427 -0.999995 0.00293828 
-0.179188 -1.82475 -3.03537 0.000979427 -0.999995 0.00293828 
-0.175083 -1.82575 -3.03529 0.000979427 -0.999995 0.00293828 
-0.171006 -1.8265 -3.03523 0.000979427 -0.999995 0.00293828 
-0.166932 -1.82725 -3.03518 0.000979427 -0.999995 0.00293828 
-0.162884 -1.82775 -3.03514 0.000979427 -0.999995 0.00293828 
-0.158816 -1.8285 -3.03508 0.000979427 -0.999995 0.00293828 
-0.154772 -1.829 -3.03504 0.000979427 -0.999995 0.00293828 
-0.15069 -1.83 -3.03496 0.000979427 -0.999995 0.00293828 
-0.146592 -1.83125 -3.03487 0.000979427 -0.999995 0.00293828 
-0.142518 -1.83225 -3.03479 0.000979427 -0.999995 0.00293828 
-0.138525 -1.83225 -3.03479 0.000979427 -0.999995 0.00293828 
-0.134551 -1.832 -3.03481 0.000979427 -0.999995 0.00293828 
-0.130628 -1.831 -3.03489 0.000979427 -0.999995 0.00293828 
-0.126719 -1.82975 -3.03498 0.000979427 -0.999995 0.00293828 
-0.122804 -1.8285 -3.03508 0.000979427 -0.999995 0.00293828 
-0.118868 -1.8275 -3.03516 0.000979427 -0.999995 0.00293828 
-0.114912 -1.82675 -3.03522 0.000979427 -0.999995 0.00293828 
-0.110952 -1.826 -3.03527 0.000979427 -0.999995 0.00293828 
-0.107003 -1.825 -3.03535 0.000979427 -0.999995 0.00293828 
-0.103051 -1.824 -3.03543 0.000979427 -0.999995 0.00293828 
-0.099107 -1.82275 -3.03553 0.000979427 -0.999995 0.00293828 
-0.0951579 -1.8215 -3.03562 0.000979427 -0.999995 0.00293828 
-0.0911909 -1.8205 -3.0357 0.000979427 -0.999995 0.00293828 
-0.0872196 -1.8195 -3.03578 0.000979427 -0.999995 0.00293828 
-0.0833682 -1.81575 -3.03607 0.000979427 -0.999995 0.00293828 
-0.0799522 -1.8015 -3.03718 0.000979427 -0.999995 0.00293828 
-0.0759328 -1.8005 -3.03725 0.000979427 -0.999995 0.00293828 
-0.07188 -1.80025 -3.03727 0.000979427 -0.999995 0.00293828 
-0.0679994 -1.79525 -3.03766 0.000979427 -0.999995 0.00293828 
-0.0640797 -1.79075 -3.03801 0.000979427 -0.999995 0.00293828 
-0.0600281 -1.78975 -3.03809 0.000979427 -0.999995 0.00293828 
-0.0559496 -1.7895 -3.03811 0.000979427 -0.999995 0.00293828 
-0.0519949 -1.78475 -3.03848 0.000979427 -0.999995 0.00293828 
-0.0483067 -1.76875 -3.03972 0.000979427 -0.999995 0.00293828 
-0.0468439 -1.65451 -3.04859 0 0 0 
-0.0072907 -1.68701 -3.04607 0 0 0 
-0.00286621 -1.7625 -3.0402 0.000979427 -0.999995 0.00293828 
0.00126376 -1.7855 -3.03842 0.000979427 -0.999995 0.00293828 
0.00533467 -1.794 -3.03776 0.000979427 -0.999995 0.00293828 
0.0094088 -1.7945 -3.03772 0.000979427 -0.999995 0.00293828 
0.0134843 -1.7945 -3.03772 0.000979427 -0.999995 0.00293828 
0.0174775 -1.80325 -3.03704 0.000979427 -0.999995 0.00293828 
0.0213919 -1.8155 -3.03609 0.000979427 -0.999995 0.00293828 
0.0254112 -1.81625 -3.03603 0.000979427 -0.999995 0.00293828 
0.0294352 -1.8165 -3.03601 0.000979427 -0.999995 0.00293828 
0.0334219 -1.81875 -3.03584 0.000979427 -0.999995 0.00293828 
0.0373326 -1.82425 -3.03541 0.000979427 -0.999995 0.00293828 
0.0413262 -1.825 -3.03535 0.000979427 -0.999995 0.00293828 
0.0453104 -1.826 -3.03527 0.000979427 -0.999995 0.00293828 
0.0493037 -1.8265 -3.03523 0.000979427 -0.999995 0.00293828 
0.0532875 -1.82725 -3.03518 0.000979427 -0.999995 0.00293828 
0.0571118 -1.833 -3.03473 0.000979427 -0.999995 0.00293828 
0.0608272 -1.84124 -3.03409 0.000979427 -0.999995 0.00293828 
0.0647739 -1.84199 -3.03403 0.000979427 -0.999995 0.00293828 
0.0687362 -1.84224 -3.03401 0.000979427 -0.999995 0.00293828 
0.0727075 -1.84224 -3.03401 0.000979427 -0.999995 0.00293828 
0.0767209 -1.84124 -3.03409 0.000979427 -0.999995 0.00293828 
0.0807497 -1.83999 -3.03419 0.000979427 -0.999995 0.00293828 
0.0847608 -1.83924 -3.03424 0.000979427 -0.999995 0.00293828 
0.0887629 -1.83874 -3.03428 0.000979427 -0.999995 0.00293828 
0.0927545 -1.83849 -3.0343 0.000979427 -0.999995 0.00293828 
0.0967207 -1.83874 -3.03428 0.000979427 -0.999995 0.00293828 
0.100547 -1.84149 -3.03407 0.000979427 -0.999995 0.00293828 
0.104405 -1.84349 -3.03391 0.000979427 -0.999995 0.00293828 
0.108344 -1.84399 -3.03388 0.000979427 -0.999995 0.00293828 
0.112311 -1.84399 -3.03388 0.000979427 -0.999995 0.00293828 
0.116295 -1.84374 -3.0339 0.000979427 -0.999995 0.00293828 
0.120279 -1.84349 -3.03391 0.000979427 -0.999995 0.00293828 
0.124299 -1.84274 -3.03397 0.000979427 -0.999995 0.00293828 
0.128322 -1.84199 -3.03403 0.000979427 -0.999995 0.00293828 
0.132349 -1.84124 -3.03409 0.000979427 -0.999995 0.00293828 
0.136397 -1.84024 -3.03417 0.000979427 -0.999995 0.00293828 
0.140951 -1.83275 -3.03475 0.000979427 -0.999995 0.00293828 
0.145141 -1.83025 -3.03494 0.000979427 -0.999995 0.00293828 
0.151177 -1.80525 -3.03689 0.000979427 -0.999995 0.00293828 
0.158347 -1.768 -3.03978 0.000979427 -0.999995 0.00293828 
0.165422 -1.73375 -3.04244 0.000979427 -0.999995 0.00293828 
-0.208617 -1.77626 -3.04325 0.000979427 -0.999995 0.00293828 
-0.201136 -1.80725 -3.04078 0.000979427 -0.999995 0.00293828 
-0.196875 -1.80925 -3.04062 0.000979427 -0.999995 0.00293828 
-0.19278 -1.80975 -3.04058 0.000979427 -0.999995 0.00293828 
-0.187768 -1.81925 -3.03982 0.000979427 -0.999995 0.00293828 
-0.183547 -1.82125 -3.03966 0.000979427 -0.999995 0.00293828 
-0.179335 -1.82325 -3.0395 0.000979427 -0.999995 0.00293828 
-0.175203 -1.8245 -3.0394 0.000979427 -0.999995 0.00293828 
-0.171099 -1.8255 -3.03932 0.000979427 -0.999995 0.00293828 
-0.167023 -1.82625 -3.03926 0.000979427 -0.999995 0.00293828 
-0.162973 -1.82675 -3.03922 0.000979427 -0.999995 0.00293828 
-0.158902 -1.8275 -3.03916 0.000979427 -0.999995 0.00293828 
-0.154857 -1.828 -3.03912 0.000979427 -0.999995 0.00293828 
-0.150793 -1.82875 -3.03906 0.000979427 -0.999995 0.00293828 
-0.146712 -1.82975 -3.03898 0.000979427 -0.999995 0.00293828 
-0.142655 -1.8305 -3.03892 0.000979427 -0.999995 0.00293828 
-0.138639 -1.83075 -3.0389 0.000979427 -0.999995 0.00293828 
-0.134661 -1.8305 -3.03892 0.000979427 -0.999995 0.00293828 
-0.130718 -1.82975 -3.03898 0.000979427 -0.999995 0.00293828 
-0.126788 -1.82875 -3.03906 0.000979427 -0.999995 0.00293828 
-0.122855 -1.82775 -3.03914 0.000979427 -0.999995 0.00293828 
-0.118917 -1.82675 -3.03922 0.000979427 -0.999995 0.00293828 
-0.114959 -1.826 -3.03928 0.000979427 -0.999995 0.00293828 
-0.111012 -1.825 -3.03936 0.000979427 -0.999995 0.00293828 
-0.107062 -1.824 -3.03944 0.000979427 -0.999995 0.00293828 
-0.103107 -1.823 -3.03952 0.000979427 -0.999995 0.00293828 
-0.0991475 -1.822 -3.0396 0.000979427 -0.999995 0.00293828 
-0.0951967 -1.82075 -3.0397 0.000979427 -0.999995 0.00293828 
-0.0912281 -1.81975 -3.03978 0.000979427 -0.999995 0.00293828 
-0.087267 -1.8185 -3.03988 0.000979427 -0.999995 0.00293828 
-0.0833456 -1.81625 -3.04006 0.000979427 -0.999995 0.00293828 
-0.0799845 -1.80075 -3.0413 0.000979427 -0.999995 0.00293828 
-0.075943 -1.80025 -3.04133 0.000979427 -0.999995 0.00293828 
-0.0718897 -1.8 -3.04135 0.000979427 -0.999995 0.00293828 
-0.0679173 -1.7975 -3.04155 0.000979427 -0.999995 0.00293828 
-0.0640883 -1.7905 -3.04211 0.000979427 -0.999995 0.00293828 
-0.0600281 -1.78975 -3.04217 0.000979427 -0.999995 0.00293828 
-0.0559496 -1.7895 -3.04219 0.000979427 -0.999995 0.00293828 
-0.0520781 -1.78175 -3.04281 0.000979427 -0.999995 0.00293828 
-0.0488815 -1.74626 -3.04565 0.000979427 -0.999995 0.00293828 
-0.0074062 -1.65577 -3.05287 0 0 0 
-0.00288849 -1.74776 -3.04553 0.000979427 -0.999995 0.00293828 
0.00126494 -1.78375 -3.04265 0.000979427 -0.999995 0.00293828 
0.00533539 -1.79375 -3.04185 0.000979427 -0.999995 0.00293828 
0.00941006 -1.79425 -3.04181 0.000979427 -0.999995 0.00293828 
0.0134825 -1.79475 -3.04177 0.000979427 -0.999995 0.00293828 
0.0175458 -1.796 -3.04167 0.000979427 -0.999995 0.00293828 
0.0214673 -1.809 -3.04064 0.000979427 -0.999995 0.00293828 
0.0254078 -1.8165 -3.04004 0.000979427 -0.999995 0.00293828 
0.0294273 -1.817 -3.04 0.000979427 -0.999995 0.00293828 
0.033381 -1.821 -3.03968 0.000979427 -0.999995 0.00293828 
0.0373326 -1.82425 -3.03942 0.000979427 -0.999995 0.00293828 
0.0413206 -1.82525 -3.03934 0.000979427 -0.999995 0.00293828 
0.0453104 -1.826 -3.03928 0.000979427 -0.999995 0.00293828 
0.049297 -1.82675 -3.03922 0.000979427 -0.999995 0.00293828 
0.053273 -1.82775 -3.03914 0.000979427 -0.999995 0.00293828 
0.0570649 -1.8345 -3.0386 0.000979427 -0.999995 0.00293828 
0.0608858 -1.8395 -3.0382 0.000979427 -0.999995 0.00293828 
0.0648185 -1.84075 -3.0381 0.000979427 -0.999995 0.00293828 
0.068793 -1.84075 -3.0381 0.000979427 -0.999995 0.00293828 
0.0727675 -1.84075 -3.0381 0.000979427 -0.999995 0.00293828 
0.076763 -1.84025 -3.03814 0.000979427 -0.999995 0.00293828 
0.080783 -1.83925 -3.03822 0.000979427 -0.999995 0.00293828 
0.0847957 -1.8385 -3.03828 0.000979427 -0.999995 0.00293828 
0.0887873 -1.83825 -3.0383 0.000979427 -0.999995 0.00293828 
0.09278 -1.838 -3.03832 0.000979427 -0.999995 0.00293828 
0.0967472 -1.83825 -3.0383 0.000979427 -0.999995 0.00293828 
0.100686 -1.839 -3.03824 0.000979427 -0.999995 0.00293828 
0.104492 -1.842 -3.038 0.000979427 -0.999995 0.00293828 
0.108404 -1.843 -3.03792 0.000979427 -0.999995 0.00293828 
0.112358 -1.84325 -3.0379 0.000979427 -0.999995 0.00293828 
0.116327 -1.84325 -3.0379 0.000979427 -0.999995 0.00293828 
0.120312 -1.843 -3.03792 0.000979427 -0.999995 0.00293828 
0.124316 -1.8425 -3.03796 0.000979427 -0.999995 0.00293828 
0.128322 -1.842 -3.038 0.000979427 -0.999995 0.00293828 
0.132349 -1.84125 -3.03806 0.000979427 -0.999995 0.00293828 
0.136378 -1.8405 -3.03812 0.000979427 -0.999995 0.00293828 
0.140488 -1.83875 -3.03826 0.000979427 -0.999995 0.00293828 
0.145042 -1.8315 -3.03884 0.000979427 -0.999995 0.00293828 
0.151258 -1.80425 -3.04102 0.000979427 -0.999995 0.00293828 
0.15841 -1.76726 -3.04397 0.000979427 -0.999995 0.00293828 
0.165465 -1.73326 -3.04668 0.000979427 -0.999995 0.00293828 
-0.207011 -1.79076 -3.04618 0.000979427 -0.999995 0.00293828 
-0.200946 -1.80901 -3.04468 0.000979427 -0.999995 0.00293828 
-0.196875 -1.80926 -3.04466 0.000979427 -0.999995 0.00293828 
-0.19278 -1.80976 -3.04462 0.000979427 -0.999995 0.00293828 
-0.18838 -1.81326 -3.04433 0.000979427 -0.999995 0.00293828 
-0.183672 -1.82001 -3.04378 0.000979427 -0.999995 0.00293828 
-0.179506 -1.82151 -3.04365 0.000979427 -0.999995 0.00293828 
-0.175322 -1.82326 -3.04351 0.000979427 -0.999995 0.00293828 
-0.171216 -1.82426 -3.04343 0.000979427 -0.999995 0.00293828 
-0.167137 -1.82501 -3.04337 0.000979427 -0.999995 0.00293828 
-0.163062 -1.82576 -3.0433 0.000979427 -0.999995 0.00293828 
-0.158989 -1.82651 -3.04324 0.000979427 -0.999995 0.00293828 
-0.15492 -1.82726 -3.04318 0.000979427 -0.999995 0.00293828 
-0.150854 -1.828 -3.04312 0.000979427 -0.999995 0.00293828 
-0.146792 -1.82875 -3.04306 0.000979427 -0.999995 0.00293828 
-0.142752 -1.82925 -3.04302 0.000979427 -0.999995 0.00293828 
-0.138715 -1.82975 -3.04298 0.000979427 -0.999995 0.00293828 
-0.134735 -1.8295 -3.043 0.000979427 -0.999995 0.00293828 
-0.130771 -1.829 -3.04304 0.000979427 -0.999995 0.00293828 
-0.12684 -1.828 -3.04312 0.000979427 -0.999995 0.00293828 
-0.122888 -1.82726 -3.04318 0.000979427 -0.999995 0.00293828 
-0.118949 -1.82626 -3.04326 0.000979427 -0.999995 0.00293828 
-0.115006 -1.82526 -3.04335 0.000979427 -0.999995 0.00293828 
-0.111058 -1.82426 -3.04343 0.000979427 -0.999995 0.00293828 
-0.107106 -1.82326 -3.04351 0.000979427 -0.999995 0.00293828 
-0.103149 -1.82226 -3.04359 0.000979427 -0.999995 0.00293828 
-0.099188 -1.82126 -3.04367 0.000979427 -0.999995 0.00293828 
-0.0952356 -1.82001 -3.04378 0.000979427 -0.999995 0.00293828 
-0.0912901 -1.81851 -3.0439 0.000979427 -0.999995 0.00293828 
-0.0873144 -1.81751 -3.04398 0.000979427 -0.999995 0.00293828 
-0.0833682 -1.81576 -3.04413 0.000979427 -0.999995 0.00293828 
-0.0799952 -1.80051 -3.04538 0.000979427 -0.999995 0.00293828 
-0.0759532 -1.80001 -3.04542 0.000979427 -0.999995 0.00293828 
-0.0718897 -1.80001 -3.04542 0.000979427 -0.999995 0.00293828 
-0.0678535 -1.79926 -3.04548 0.000979427 -0.999995 0.00293828 
-0.0640969 -1.79026 -3.04622 0.000979427 -0.999995 0.00293828 
-0.0600281 -1.78976 -3.04626 0.000979427 -0.999995 0.00293828 
-0.0560992 -1.78451 -3.04669 0.000979427 -0.999995 0.00293828 
-0.0524871 -1.76701 -3.04812 0.000979427 -0.999995 0.00293828 
-0.0495202 -1.72127 -3.05188 0.000979427 -0.999995 0.00293828 
-0.00292512 -1.72352 -3.05169 0 0 0 
0.00126629 -1.78176 -3.04691 0.000979427 -0.999995 0.00293828 
0.00534039 -1.79201 -3.04607 0.000979427 -0.999995 0.00293828 
0.00941132 -1.79401 -3.04591 0.000979427 -0.999995 0.00293828 
0.0134825 -1.79476 -3.04585 0.000979427 -0.999995 0.00293828 
0.0175505 -1.79551 -3.04579 0.000979427 -0.999995 0.00293828 
0.0215688 -1.80026 -3.0454 0.000979427 -0.999995 0.00293828 
0.0254112 -1.81626 -3.04408 0.000979427 -0.999995 0.00293828 
0.0294233 -1.81726 -3.044 0.000979427 -0.999995 0.00293828 
0.0333402 -1.82326 -3.04351 0.000979427 -0.999995 0.00293828 
0.0373224 -1.82476 -3.04339 0.000979427 -0.999995 0.00293828 
0.041315 -1.82551 -3.04332 0.000979427 -0.999995 0.00293828 
0.0452981 -1.82651 -3.04324 0.000979427 -0.999995 0.00293828 
0.0492768 -1.8275 -3.04316 0.000979427 -0.999995 0.00293828 
0.0532221 -1.8295 -3.043 0.000979427 -0.999995 0.00293828 
0.0570492 -1.835 -3.04255 0.000979427 -0.999995 0.00293828 
0.060936 -1.838 -3.0423 0.000979427 -0.999995 0.00293828 
0.0648719 -1.83925 -3.0422 0.000979427 -0.999995 0.00293828 
0.0688402 -1.8395 -3.04218 0.000979427 -0.999995 0.00293828 
0.0728175 -1.8395 -3.04218 0.000979427 -0.999995 0.00293828 
0.0768052 -1.83925 -3.0422 0.000979427 -0.999995 0.00293828 
0.0808163 -1.8385 -3.04226 0.000979427 -0.999995 0.00293828 
0.084819 -1.838 -3.0423 0.000979427 -0.999995 0.00293828 
0.0888117 -1.83775 -3.04232 0.000979427 -0.999995 0.00293828 
0.0928055 -1.8375 -3.04234 0.000979427 -0.999995 0.00293828 
0.0967738 -1.83775 -3.04232 0.000979427 -0.999995 0.00293828 
0.100727 -1.83825 -3.04228 0.000979427 -0.999995 0.00293828 
0.104607 -1.84 -3.04214 0.000979427 -0.999995 0.00293828 
0.108478 -1.84175 -3.04199 0.000979427 -0.999995 0.00293828 
0.112404 -1.8425 -3.04193 0.000979427 -0.999995 0.00293828 
0.116375 -1.8425 -3.04193 0.000979427 -0.999995 0.00293828 
0.120346 -1.8425 -3.04193 0.000979427 -0.999995 0.00293828 
0.124333 -1.84225 -3.04195 0.000979427 -0.999995 0.00293828 
0.12834 -1.84175 -3.04199 0.000979427 -0.999995 0.00293828 
0.132349 -1.84125 -3.04203 0.000979427 -0.999995 0.00293828 
0.136359 -1.84075 -3.04207 0.000979427 -0.999995 0.00293828 
0.140392 -1.84 -3.04214 0.000979427 -0.999995 0.00293828 
0.144983 -1.83225 -3.04277 0.000979427 -0.999995 0.00293828 
0.151401 -1.80251 -3.04521 0.000979427 -0.999995 0.00293828 
0.158451 -1.76676 -3.04814 0.000979427 -0.999995 0.00293828 
0.165508 -1.73276 -3.05093 0.000979427 -0.999995 0.00293828 
-0.207039 -1.79051 -3.05028 0.000979427 -0.999995 0.00293828 
-0.200946 -1.80901 -3.04872 0.000979427 -0.999995 0.00293828 
-0.196875 -1.80926 -3.0487 0.000979427 -0.999995 0.00293828 
-0.192806 -1.80951 -3.04868 0.000979427 -0.999995 0.00293828 
-0.188686 -1.81026 -3.04862 0.000979427 -0.999995 0.00293828 
-0.183922 -1.81751 -3.04801 0.000979427 -0.999995 0.00293828 
-0.179628 -1.82026 -3.04777 0.000979427 -0.999995 0.00293828 
-0.175465 -1.82176 -3.04765 0.000979427 -0.999995 0.00293828 
-0.171333 -1.82301 -3.04754 0.000979427 -0.999995 0.00293828 
-0.167251 -1.82376 -3.04748 0.000979427 -0.999995 0.00293828 
-0.16315 -1.82476 -3.04739 0.000979427 -0.999995 0.00293828 
-0.159076 -1.82551 -3.04733 0.000979427 -0.999995 0.00293828 
-0.155005 -1.82626 -3.04727 0.000979427 -0.999995 0.00293828 
-0.150916 -1.82726 -3.04718 0.000979427 -0.999995 0.00293828 
-0.146872 -1.82776 -3.04714 0.000979427 -0.999995 0.00293828 
-0.142811 -1.82851 -3.04708 0.000979427 -0.999995 0.00293828 
-0.138791 -1.82876 -3.04706 0.000979427 -0.999995 0.00293828 
-0.13479 -1.82876 -3.04706 0.000979427 -0.999995 0.00293828 
-0.130825 -1.82826 -3.0471 0.000979427 -0.999995 0.00293828 
-0.126875 -1.82751 -3.04716 0.000979427 -0.999995 0.00293828 
-0.122922 -1.82676 -3.04723 0.000979427 -0.999995 0.00293828 
-0.118965 -1.82601 -3.04729 0.000979427 -0.999995 0.00293828 
-0.115021 -1.82501 -3.04737 0.000979427 -0.999995 0.00293828 
-0.111073 -1.82401 -3.04746 0.000979427 -0.999995 0.00293828 
-0.10712 -1.82301 -3.04754 0.000979427 -0.999995 0.00293828 
-0.103177 -1.82176 -3.04765 0.000979427 -0.999995 0.00293828 
-0.0992284 -1.82051 -3.04775 0.000979427 -0.999995 0.00293828 
-0.0952873 -1.81901 -3.04788 0.000979427 -0.999995 0.00293828 
-0.0913397 -1.81751 -3.04801 0.000979427 -0.999995 0.00293828 
-0.0873618 -1.81651 -3.04809 0.000979427 -0.999995 0.00293828 
-0.0834134 -1.81476 -3.04824 0.000979427 -0.999995 0.00293828 
-0.0799952 -1.80051 -3.04944 0.000979427 -0.999995 0.00293828 
-0.0759634 -1.79976 -3.0495 0.000979427 -0.999995 0.00293828 
-0.0718993 -1.79976 -3.0495 0.000979427 -0.999995 0.00293828 
-0.0678535 -1.79926 -3.04954 0.000979427 -0.999995 0.00293828 
-0.0641054 -1.79001 -3.05032 0.000979427 -0.999995 0.00293828 
-0.0600602 -1.78876 -3.05043 0.000979427 -0.999995 0.00293828 
-0.0562189 -1.78051 -3.05112 0.000979427 -0.999995 0.00293828 
-0.0527367 -1.75802 -3.05302 0.000979427 -0.999995 0.00293828 
-0.0503057 -1.69052 -3.0587 0 0 0 
-0.00297007 -1.69377 -3.05843 0 0 0 
0.00127354 -1.77102 -3.05192 0.000979427 -0.999995 0.00293828 
0.00535898 -1.78551 -3.0507 0.000979427 -0.999995 0.00293828 
0.00941636 -1.79301 -3.05007 0.000979427 -0.999995 0.00293828 
0.013488 -1.79401 -3.04998 0.000979427 -0.999995 0.00293828 
0.0175552 -1.79501 -3.0499 0.000979427 -0.999995 0.00293828 
0.0216007 -1.79751 -3.04969 0.000979427 -0.999995 0.00293828 
0.0255835 -1.80376 -3.04916 0.000979427 -0.999995 0.00293828 
0.0294193 -1.81751 -3.04801 0.000979427 -0.999995 0.00293828 
0.0333356 -1.82351 -3.0475 0.000979427 -0.999995 0.00293828 
0.0373224 -1.82476 -3.04739 0.000979427 -0.999995 0.00293828 
0.0413093 -1.82576 -3.04731 0.000979427 -0.999995 0.00293828 
0.0452857 -1.82701 -3.04721 0.000979427 -0.999995 0.00293828 
0.0492499 -1.82851 -3.04708 0.000979427 -0.999995 0.00293828 
0.0531785 -1.83101 -3.04687 0.000979427 -0.999995 0.00293828 
0.0570727 -1.83426 -3.04659 0.000979427 -0.999995 0.00293828 
0.0609778 -1.83676 -3.04638 0.000979427 -0.999995 0.00293828 
0.0649343 -1.83751 -3.04632 0.000979427 -0.999995 0.00293828 
0.068878 -1.83851 -3.04624 0.000979427 -0.999995 0.00293828 
0.0728575 -1.83851 -3.04624 0.000979427 -0.999995 0.00293828 
0.0768474 -1.83826 -3.04626 0.000979427 -0.999995 0.00293828 
0.0808385 -1.83801 -3.04628 0.000979427 -0.999995 0.00293828 
0.0848306 -1.83776 -3.0463 0.000979427 -0.999995 0.00293828 
0.0888361 -1.83726 -3.04634 0.000979427 -0.999995 0.00293828 
0.0928182 -1.83726 -3.04634 0.000979427 -0.999995 0.00293828 
0.0968003 -1.83726 -3.04634 0.000979427 -0.999995 0.00293828 
0.100769 -1.83751 -3.04632 0.000979427 -0.999995 0.00293828 
0.104693 -1.83851 -3.04624 0.000979427 -0.999995 0.00293828 
0.108583 -1.84001 -3.04611 0.000979427 -0.999995 0.00293828 
0.112481 -1.84126 -3.04601 0.000979427 -0.999995 0.00293828 
0.116423 -1.84176 -3.04596 0.000979427 -0.999995 0.00293828 
0.120379 -1.84201 -3.04594 0.000979427 -0.999995 0.00293828 
0.124368 -1.84176 -3.04596 0.000979427 -0.999995 0.00293828 
0.128357 -1.84151 -3.04598 0.000979427 -0.999995 0.00293828 
0.132367 -1.84101 -3.04603 0.000979427 -0.999995 0.00293828 
0.136378 -1.84051 -3.04607 0.000979427 -0.999995 0.00293828 
0.140372 -1.84026 -3.04609 0.000979427 -0.999995 0.00293828 
0.144923 -1.83301 -3.0467 0.000979427 -0.999995 0.00293828 
0.151686 -1.79901 -3.04956 0.000979427 -0.999995 0.00293828 
0.158535 -1.76577 -3.05236 0.000979427 -0.999995 0.00293828 
0.165594 -1.73177 -3.05523 0.000979427 -0.999995 0.00293828 
-0.207066 -1.79027 -3.05438 0.000979427 -0.999995 0.00293828 
-0.200973 -1.80877 -3.05278 0.000979427 -0.999995 0.00293828 
-0.196902 -1.80902 -3.05276 0.000979427 -0.999995 0.00293828 
-0.192832 -1.80927 -3.05274 0.000979427 -0.999995 0.00293828 
-0.188737 -1.80977 -3.0527 0.000979427 -0.999995 0.00293828 
-0.18457 -1.81102 -3.05259 0.000979427 -0.999995 0.00293828 
-0.179823 -1.81827 -3.05196 0.000979427 -0.999995 0.00293828 
-0.175585 -1.82052 -3.05177 0.000979427 -0.999995 0.00293828 
-0.171449 -1.82176 -3.05166 0.000979427 -0.999995 0.00293828 
-0.167342 -1.82276 -3.05158 0.000979427 -0.999995 0.00293828 
-0.163239 -1.82376 -3.05149 0.000979427 -0.999995 0.00293828 
-0.159141 -1.82476 -3.0514 0.000979427 -0.999995 0.00293828 
-0.155047 -1.82576 -3.05132 0.000979427 -0.999995 0.00293828 
-0.150978 -1.82651 -3.05125 0.000979427 -0.999995 0.00293828 
-0.146912 -1.82726 -3.05119 0.000979427 -0.999995 0.00293828 
-0.142869 -1.82776 -3.05114 0.000979427 -0.999995 0.00293828 
-0.138847 -1.82801 -3.05112 0.000979427 -0.999995 0.00293828 
-0.134845 -1.82801 -3.05112 0.000979427 -0.999995 0.00293828 
-0.130861 -1.82776 -3.05114 0.000979427 -0.999995 0.00293828 
-0.126892 -1.82726 -3.05119 0.000979427 -0.999995 0.00293828 
-0.122939 -1.82651 -3.05125 0.000979427 -0.999995 0.00293828 
-0.118982 -1.82576 -3.05132 0.000979427 -0.999995 0.00293828 
-0.115021 -1.82501 -3.05138 0.000979427 -0.999995 0.00293828 
-0.111073 -1.82401 -3.05147 0.000979427 -0.999995 0.00293828 
-0.107135 -1.82276 -3.05158 0.000979427 -0.999995 0.00293828 
-0.103191 -1.82151 -3.05168 0.000979427 -0.999995 0.00293828 
-0.0992689 -1.81977 -3.05183 0.000979427 -0.999995 0.00293828 
-0.0953391 -1.81802 -3.05199 0.000979427 -0.999995 0.00293828 
-0.0913769 -1.81677 -3.05209 0.000979427 -0.999995 0.00293828 
-0.0873973 -1.81577 -3.05218 0.000979427 -0.999995 0.00293828 
-0.0835603 -1.81152 -3.05255 0.000979427 -0.999995 0.00293828 
-0.0799952 -1.80052 -3.0535 0.000979427 -0.999995 0.00293828 
-0.0759532 -1.80002 -3.05354 0.000979427 -0.999995 0.00293828 
-0.0718897 -1.80002 -3.05354 0.000979427 -0.999995 0.00293828 
-0.0678535 -1.79927 -3.05361 0.000979427 -0.999995 0.00293828 
-0.0641226 -1.78952 -3.05445 0.000979427 -0.999995 0.00293828 
-0.0601725 -1.78527 -3.05482 0.000979427 -0.999995 0.00293828 
-0.0566377 -1.76652 -3.05644 0.000979427 -0.999995 0.00293828 
-0.0531942 -1.74152 -3.05859 0.000979427 -0.999995 0.00293828 
-0.0511295 -1.65828 -3.06579 0 0 0 
-0.00300821 -1.66853 -3.0649 0 0 0 
0.00128163 -1.75902 -3.05708 0.000979427 -0.999995 0.00293828 
0.00537685 -1.77927 -3.05533 0.000979427 -0.999995 0.00293828 
0.0094315 -1.79002 -3.0544 0.000979427 -0.999995 0.00293828 
0.0134988 -1.79252 -3.05419 0.000979427 -0.999995 0.00293828 
0.017567 -1.79377 -3.05408 0.000979427 -0.999995 0.00293828 
0.0216181 -1.79602 -3.05389 0.000979427 -0.999995 0.00293828 
0.0256145 -1.80152 -3.05341 0.000979427 -0.999995 0.00293828 
0.0294352 -1.81652 -3.05212 0.000979427 -0.999995 0.00293828 
0.0333402 -1.82326 -3.05153 0.000979427 -0.999995 0.00293828 
0.0373173 -1.82501 -3.05138 0.000979427 -0.999995 0.00293828 
0.0413037 -1.82601 -3.05129 0.000979427 -0.999995 0.00293828 
0.0452734 -1.82751 -3.05116 0.000979427 -0.999995 0.00293828 
0.0492365 -1.82901 -3.05103 0.000979427 -0.999995 0.00293828 
0.0531785 -1.83101 -3.05086 0.000979427 -0.999995 0.00293828 
0.057104 -1.83326 -3.05067 0.000979427 -0.999995 0.00293828 
0.0610279 -1.83526 -3.0505 0.000979427 -0.999995 0.00293828 
0.0649699 -1.83651 -3.05039 0.000979427 -0.999995 0.00293828 
0.0689253 -1.83726 -3.05032 0.000979427 -0.999995 0.00293828 
0.0728975 -1.83751 -3.0503 0.000979427 -0.999995 0.00293828 
0.0768791 -1.83751 -3.0503 0.000979427 -0.999995 0.00293828 
0.0808607 -1.83751 -3.0503 0.000979427 -0.999995 0.00293828 
0.0848539 -1.83726 -3.05032 0.000979427 -0.999995 0.00293828 
0.0888482 -1.83701 -3.05034 0.000979427 -0.999995 0.00293828 
0.0928309 -1.83701 -3.05034 0.000979427 -0.999995 0.00293828 
0.0968136 -1.83701 -3.05034 0.000979427 -0.999995 0.00293828 
0.100782 -1.83726 -3.05032 0.000979427 -0.999995 0.00293828 
0.104736 -1.83776 -3.05028 0.000979427 -0.999995 0.00293828 
0.108657 -1.83876 -3.05019 0.000979427 -0.999995 0.00293828 
0.112559 -1.84001 -3.05008 0.000979427 -0.999995 0.00293828 
0.116487 -1.84076 -3.05002 0.000979427 -0.999995 0.00293828 
0.120428 -1.84126 -3.04998 0.000979427 -0.999995 0.00293828 
0.124402 -1.84126 -3.04998 0.000979427 -0.999995 0.00293828 
0.128393 -1.84101 -3.05 0.000979427 -0.999995 0.00293828 
0.132385 -1.84076 -3.05002 0.000979427 -0.999995 0.00293828 
0.136378 -1.84051 -3.05004 0.000979427 -0.999995 0.00293828 
0.140392 -1.84001 -3.05008 0.000979427 -0.999995 0.00293828 
0.144963 -1.83251 -3.05073 0.000979427 -0.999995 0.00293828 
0.152196 -1.79277 -3.05417 0.000979427 -0.999995 0.00293828 
0.158619 -1.76477 -3.05659 0.000979427 -0.999995 0.00293828 
0.165637 -1.73127 -3.05948 0.000979427 -0.999995 0.00293828 
-0.207149 -1.78952 -3.05853 0.000979427 -0.999995 0.00293828 
-0.201 -1.80852 -3.05685 0.000979427 -0.999995 0.00293828 
-0.196928 -1.80877 -3.05683 0.000979427 -0.999995 0.00293828 
-0.192858 -1.80902 -3.05681 0.000979427 -0.999995 0.00293828 
-0.188763 -1.80952 -3.05676 0.000979427 -0.999995 0.00293828 
-0.18467 -1.81002 -3.05672 0.000979427 -0.999995 0.00293828 
-0.180433 -1.81202 -3.05654 0.000979427 -0.999995 0.00293828 
-0.175704 -1.81927 -3.0559 0.000979427 -0.999995 0.00293828 
-0.171542 -1.82077 -3.05576 0.000979427 -0.999995 0.00293828 
-0.16741 -1.82202 -3.05565 0.000979427 -0.999995 0.00293828 
-0.163306 -1.82302 -3.05556 0.000979427 -0.999995 0.00293828 
-0.159184 -1.82427 -3.05545 0.000979427 -0.999995 0.00293828 
-0.155089 -1.82527 -3.05537 0.000979427 -0.999995 0.00293828 
-0.151019 -1.82602 -3.0553 0.000979427 -0.999995 0.00293828 
-0.146952 -1.82677 -3.05523 0.000979427 -0.999995 0.00293828 
-0.142908 -1.82727 -3.05519 0.000979427 -0.999995 0.00293828 
-0.138885 -1.82752 -3.05517 0.000979427 -0.999995 0.00293828 
-0.134882 -1.82752 -3.05517 0.000979427 -0.999995 0.00293828 
-0.130896 -1.82727 -3.05519 0.000979427 -0.999995 0.00293828 
-0.126927 -1.82677 -3.05523 0.000979427 -0.999995 0.00293828 
-0.122955 -1.82627 -3.05528 0.000979427 -0.999995 0.00293828 
-0.118982 -1.82577 -3.05532 0.000979427 -0.999995 0.00293828 
-0.115037 -1.82477 -3.05541 0.000979427 -0.999995 0.00293828 
-0.111073 -1.82402 -3.05548 0.000979427 -0.999995 0.00293828 
-0.107135 -1.82277 -3.05559 0.000979427 -0.999995 0.00293828 
-0.103191 -1.82152 -3.0557 0.000979427 -0.999995 0.00293828 
-0.0993093 -1.81902 -3.05592 0.000979427 -0.999995 0.00293828 
-0.0953909 -1.81702 -3.0561 0.000979427 -0.999995 0.00293828 
-0.091414 -1.81602 -3.05619 0.000979427 -0.999995 0.00293828 
-0.0874447 -1.81477 -3.0563 0.000979427 -0.999995 0.00293828 
-0.0836847 -1.80877 -3.05683 0.000979427 -0.999995 0.00293828 
-0.0799845 -1.80077 -3.05754 0.000979427 -0.999995 0.00293828 
-0.0759532 -1.80002 -3.0576 0.000979427 -0.999995 0.00293828 
-0.0718897 -1.80002 -3.0576 0.000979427 -0.999995 0.00293828 
-0.0678626 -1.79902 -3.05769 0.000979427 -0.999995 0.00293828 
-0.0641654 -1.78827 -3.05864 0.000979427 -0.999995 0.00293828 
-0.060333 -1.78027 -3.05935 0.000979427 -0.999995 0.00293828 
-0.0569069 -1.75753 -3.06137 0.000979427 -0.999995 0.00293828 
-0.0539014 -1.71603 -3.06504 0.000979427 -0.999995 0.00293828 
-0.00303503 -1.65079 -3.07082 0 0 0 
0.00128854 -1.74878 -3.06214 0.000979427 -0.999995 0.00293828 
0.00539043 -1.77452 -3.05986 0.000979427 -0.999995 0.00293828 
0.00943906 -1.78852 -3.05862 0.000979427 -0.999995 0.00293828 
0.0135133 -1.79052 -3.05844 0.000979427 -0.999995 0.00293828 
0.0175834 -1.79202 -3.05831 0.000979427 -0.999995 0.00293828 
0.0216413 -1.79402 -3.05813 0.000979427 -0.999995 0.00293828 
0.0256145 -1.80152 -3.05747 0.000979427 -0.999995 0.00293828 
0.0294392 -1.81627 -3.05616 0.000979427 -0.999995 0.00293828 
0.033381 -1.82102 -3.05574 0.000979427 -0.999995 0.00293828 
0.0373224 -1.82477 -3.05541 0.000979427 -0.999995 0.00293828 
0.0412981 -1.82627 -3.05528 0.000979427 -0.999995 0.00293828 
0.0452734 -1.82752 -3.05517 0.000979427 -0.999995 0.00293828 
0.0492298 -1.82927 -3.05501 0.000979427 -0.999995 0.00293828 
0.0531858 -1.83077 -3.05488 0.000979427 -0.999995 0.00293828 
0.0571274 -1.83252 -3.05472 0.000979427 -0.999995 0.00293828 
0.0610697 -1.83402 -3.05459 0.000979427 -0.999995 0.00293828 
0.0650144 -1.83527 -3.05448 0.000979427 -0.999995 0.00293828 
0.0689631 -1.83627 -3.05439 0.000979427 -0.999995 0.00293828 
0.0729375 -1.83652 -3.05437 0.000979427 -0.999995 0.00293828 
0.0769107 -1.83677 -3.05435 0.000979427 -0.999995 0.00293828 
0.0808829 -1.83702 -3.05433 0.000979427 -0.999995 0.00293828 
0.0848655 -1.83702 -3.05433 0.000979427 -0.999995 0.00293828 
0.0888604 -1.83677 -3.05435 0.000979427 -0.999995 0.00293828 
0.0928437 -1.83677 -3.05435 0.000979427 -0.999995 0.00293828 
0.0968269 -1.83677 -3.05435 0.000979427 -0.999995 0.00293828 
0.10081 -1.83677 -3.05435 0.000979427 -0.999995 0.00293828 
0.104779 -1.83702 -3.05433 0.000979427 -0.999995 0.00293828 
0.108717 -1.83777 -3.05426 0.000979427 -0.999995 0.00293828 
0.112636 -1.83877 -3.05417 0.000979427 -0.999995 0.00293828 
0.116551 -1.83977 -3.05408 0.000979427 -0.999995 0.00293828 
0.120495 -1.84027 -3.05404 0.000979427 -0.999995 0.00293828 
0.124453 -1.84052 -3.05402 0.000979427 -0.999995 0.00293828 
0.128428 -1.84052 -3.05402 0.000979427 -0.999995 0.00293828 
0.132421 -1.84027 -3.05404 0.000979427 -0.999995 0.00293828 
0.136416 -1.84002 -3.05406 0.000979427 -0.999995 0.00293828 
0.140411 -1.83977 -3.05408 0.000979427 -0.999995 0.00293828 
0.144983 -1.83227 -3.05475 0.000979427 -0.999995 0.00293828 
0.15244 -1.78977 -3.05851 0.000979427 -0.999995 0.00293828 
0.158682 -1.76403 -3.06079 0.000979427 -0.999995 0.00293828 
0.16568 -1.73078 -3.06374 0.000979427 -0.999995 0.00293828 
-0.207288 -1.78828 -3.06273 0.000979427 -0.999995 0.00293828 
-0.201 -1.80853 -3.06089 0.000979427 -0.999995 0.00293828 
-0.196955 -1.80853 -3.06089 0.000979427 -0.999995 0.00293828 
-0.192884 -1.80878 -3.06087 0.000979427 -0.999995 0.00293828 
-0.188789 -1.80928 -3.06082 0.000979427 -0.999995 0.00293828 
-0.184695 -1.80978 -3.06078 0.000979427 -0.999995 0.00293828 
-0.180604 -1.81028 -3.06073 0.000979427 -0.999995 0.00293828 
-0.17599 -1.81627 -3.06019 0.000979427 -0.999995 0.00293828 
-0.171612 -1.82002 -3.05985 0.000979427 -0.999995 0.00293828 
-0.167479 -1.82127 -3.05974 0.000979427 -0.999995 0.00293828 
-0.163328 -1.82277 -3.0596 0.000979427 -0.999995 0.00293828 
-0.159206 -1.82402 -3.05949 0.000979427 -0.999995 0.00293828 
-0.15511 -1.82502 -3.0594 0.000979427 -0.999995 0.00293828 
-0.15104 -1.82577 -3.05933 0.000979427 -0.999995 0.00293828 
-0.146972 -1.82652 -3.05926 0.000979427 -0.999995 0.00293828 
-0.142947 -1.82677 -3.05924 0.000979427 -0.999995 0.00293828 
-0.138923 -1.82702 -3.05921 0.000979427 -0.999995 0.00293828 
-0.134919 -1.82702 -3.05921 0.000979427 -0.999995 0.00293828 
-0.130932 -1.82677 -3.05924 0.000979427 -0.999995 0.00293828 
-0.126944 -1.82652 -3.05926 0.000979427 -0.999995 0.00293828 
-0.122972 -1.82602 -3.0593 0.000979427 -0.999995 0.00293828 
-0.118998 -1.82552 -3.05935 0.000979427 -0.999995 0.00293828 
-0.115037 -1.82477 -3.05942 0.000979427 -0.999995 0.00293828 
-0.111073 -1.82402 -3.05949 0.000979427 -0.999995 0.00293828 
-0.10712 -1.82302 -3.05958 0.000979427 -0.999995 0.00293828 
-0.103177 -1.82177 -3.05969 0.000979427 -0.999995 0.00293828 
-0.0993228 -1.81877 -3.05996 0.000979427 -0.999995 0.00293828 
-0.0954426 -1.81602 -3.06021 0.000979427 -0.999995 0.00293828 
-0.0914512 -1.81528 -3.06028 0.000979427 -0.999995 0.00293828 
-0.0875158 -1.81328 -3.06046 0.000979427 -0.999995 0.00293828 
-0.0837299 -1.80778 -3.06096 0.000979427 -0.999995 0.00293828 
-0.0799522 -1.80153 -3.06153 0.000979427 -0.999995 0.00293828 
-0.0759328 -1.80053 -3.06162 0.000979427 -0.999995 0.00293828 
-0.07188 -1.80028 -3.06164 0.000979427 -0.999995 0.00293828 
-0.0680541 -1.79378 -3.06223 0.000979427 -0.999995 0.00293828 
-0.0642683 -1.78528 -3.063 0.000979427 -0.999995 0.00293828 
-0.0603732 -1.77903 -3.06357 0.000979427 -0.999995 0.00293828 
-0.057064 -1.75228 -3.066 0.000979427 -0.999995 0.00293828 
-0.0548719 -1.68104 -3.07246 0 0 0 
0.00128854 -1.74878 -3.06632 0.000979427 -0.999995 0.00293828 
0.00539543 -1.77278 -3.06414 0.000979427 -0.999995 0.00293828 
0.00944537 -1.78728 -3.06282 0.000979427 -0.999995 0.00293828 
0.0135187 -1.78978 -3.06259 0.000979427 -0.999995 0.00293828 
0.0175976 -1.79053 -3.06253 0.000979427 -0.999995 0.00293828 
0.02165 -1.79328 -3.06228 0.000979427 -0.999995 0.00293828 
0.0256214 -1.80103 -3.06157 0.000979427 -0.999995 0.00293828 
0.0294632 -1.81478 -3.06033 0.000979427 -0.999995 0.00293828 
0.0334173 -1.81902 -3.05994 0.000979427 -0.999995 0.00293828 
0.0373529 -1.82327 -3.05955 0.000979427 -0.999995 0.00293828 
0.0413206 -1.82527 -3.05937 0.000979427 -0.999995 0.00293828 
0.0452734 -1.82752 -3.05917 0.000979427 -0.999995 0.00293828 
0.0492365 -1.82902 -3.05903 0.000979427 -0.999995 0.00293828 
0.053193 -1.83052 -3.0589 0.000979427 -0.999995 0.00293828 
0.057143 -1.83202 -3.05876 0.000979427 -0.999995 0.00293828 
0.0610948 -1.83327 -3.05865 0.000979427 -0.999995 0.00293828 
0.0650501 -1.83427 -3.05856 0.000979427 -0.999995 0.00293828 
0.069001 -1.83527 -3.05847 0.000979427 -0.999995 0.00293828 
0.0729675 -1.83577 -3.05842 0.000979427 -0.999995 0.00293828 
0.0769318 -1.83627 -3.05837 0.000979427 -0.999995 0.00293828 
0.080905 -1.83652 -3.05835 0.000979427 -0.999995 0.00293828 
0.0848888 -1.83652 -3.05835 0.000979427 -0.999995 0.00293828 
0.0888726 -1.83652 -3.05835 0.000979427 -0.999995 0.00293828 
0.0928564 -1.83652 -3.05835 0.000979427 -0.999995 0.00293828 
0.0968402 -1.83652 -3.05835 0.000979427 -0.999995 0.00293828 
0.100824 -1.83652 -3.05835 0.000979427 -0.999995 0.00293828 
0.104808 -1.83652 -3.05835 0.000979427 -0.999995 0.00293828 
0.108777 -1.83677 -3.05833 0.000979427 -0.999995 0.00293828 
0.112713 -1.83752 -3.05826 0.000979427 -0.999995 0.00293828 
0.116631 -1.83852 -3.05817 0.000979427 -0.999995 0.00293828 
0.120561 -1.83927 -3.0581 0.000979427 -0.999995 0.00293828 
0.124504 -1.83977 -3.05806 0.000979427 -0.999995 0.00293828 
0.128481 -1.83977 -3.05806 0.000979427 -0.999995 0.00293828 
0.132476 -1.83952 -3.05808 0.000979427 -0.999995 0.00293828 
0.136472 -1.83927 -3.0581 0.000979427 -0.999995 0.00293828 
0.140469 -1.83902 -3.05813 0.000979427 -0.999995 0.00293828 
0.145042 -1.83152 -3.05881 0.000979427 -0.999995 0.00293828 
0.152563 -1.78828 -3.06273 0.000979427 -0.999995 0.00293828 
0.158724 -1.76353 -3.06498 0.000979427 -0.999995 0.00293828 
0.165701 -1.73053 -3.06797 0.000979427 -0.999995 0.00293828 
-0.207482 -1.78653 -3.06698 0.000979427 -0.999995 0.00293828 
-0.201 -1.80853 -3.06494 0.000979427 -0.999995 0.00293828 
-0.196955 -1.80853 -3.06494 0.000979427 -0.999995 0.00293828 
-0.192884 -1.80878 -3.06491 0.000979427 -0.999995 0.00293828 
-0.188789 -1.80928 -3.06487 0.000979427 -0.999995 0.00293828 
-0.184695 -1.80978 -3.06482 0.000979427 -0.999995 0.00293828 
-0.180604 -1.81028 -3.06477 0.000979427 -0.999995 0.00293828 
-0.176468 -1.81128 -3.06468 0.000979427 -0.999995 0.00293828 
-0.171659 -1.81953 -3.06391 0.000979427 -0.999995 0.00293828 
-0.167479 -1.82128 -3.06375 0.000979427 -0.999995 0.00293828 
-0.16335 -1.82253 -3.06364 0.000979427 -0.999995 0.00293828 
-0.159206 -1.82403 -3.0635 0.000979427 -0.999995 0.00293828 
-0.15511 -1.82503 -3.0634 0.000979427 -0.999995 0.00293828 
-0.15104 -1.82578 -3.06333 0.000979427 -0.999995 0.00293828 
-0.146992 -1.82628 -3.06329 0.000979427 -0.999995 0.00293828 
-0.142967 -1.82653 -3.06326 0.000979427 -0.999995 0.00293828 
-0.138942 -1.82678 -3.06324 0.000979427 -0.999995 0.00293828 
-0.134955 -1.82653 -3.06326 0.000979427 -0.999995 0.00293828 
-0.13095 -1.82653 -3.06326 0.000979427 -0.999995 0.00293828 
-0.126961 -1.82628 -3.06329 0.000979427 -0.999995 0.00293828 
-0.122989 -1.82578 -3.06333 0.000979427 -0.999995 0.00293828 
-0.119014 -1.82528 -3.06338 0.000979427 -0.999995 0.00293828 
-0.115053 -1.82453 -3.06345 0.000979427 -0.999995 0.00293828 
-0.111088 -1.82378 -3.06352 0.000979427 -0.999995 0.00293828 
-0.10712 -1.82303 -3.06359 0.000979427 -0.999995 0.00293828 
-0.103177 -1.82178 -3.0637 0.000979427 -0.999995 0.00293828 
-0.0993633 -1.81803 -3.06405 0.000979427 -0.999995 0.00293828 
-0.0954944 -1.81503 -3.06433 0.000979427 -0.999995 0.00293828 
-0.091538 -1.81353 -3.06447 0.000979427 -0.999995 0.00293828 
-0.0875869 -1.81178 -3.06463 0.000979427 -0.999995 0.00293828 
-0.0837412 -1.80753 -3.06503 0.000979427 -0.999995 0.00293828 
-0.0798984 -1.80278 -3.06547 0.000979427 -0.999995 0.00293828 
-0.0759124 -1.80103 -3.06563 0.000979427 -0.999995 0.00293828 
-0.071909 -1.79953 -3.06577 0.000979427 -0.999995 0.00293828 
-0.0682364 -1.78878 -3.06677 0.000979427 -0.999995 0.00293828 
-0.0644054 -1.78128 -3.06747 0.000979427 -0.999995 0.00293828 
-0.0607905 -1.76604 -3.06889 0.000979427 -0.999995 0.00293828 
-0.0574529 -1.73929 -3.07137 0.000979427 -0.999995 0.00293828 
-0.0557108 -1.6508 -3.0796 0.000979427 -0.999995 0.00293828 
0.00129511 -1.73904 -3.0714 0.000979427 -0.999995 0.00293828 
0.00540258 -1.77028 -3.06849 0.000979427 -0.999995 0.00293828 
0.00945672 -1.78503 -3.06712 0.000979427 -0.999995 0.00293828 
0.0135223 -1.78928 -3.06673 0.000979427 -0.999995 0.00293828 
0.0175999 -1.79028 -3.06663 0.000979427 -0.999995 0.00293828 
0.0215949 -1.79803 -3.06591 0.000979427 -0.999995 0.00293828 
0.0256249 -1.80078 -3.06566 0.000979427 -0.999995 0.00293828 
0.029539 -1.81003 -3.0648 0.000979427 -0.999995 0.00293828 
0.0334536 -1.81703 -3.06415 0.000979427 -0.999995 0.00293828 
0.0373783 -1.82203 -3.06368 0.000979427 -0.999995 0.00293828 
