ply
format ascii 1.0
comment Created by CloudCompare v2.11.1 (Anoia)
comment Created 2022/01/16 16:35
obj_info Generated by CloudCompare!
element vertex 778
property float x
property float y
property float z
property float nx
property float ny
property float nz
end_header
0.0706555 -1.05058 -3.04155 0.000979431 -0.999999 0.000979431 
0.0747277 -1.05083 -3.04147 0.000979431 -0.999999 0.000979431 
0.0787987 -1.05108 -3.04138 0.000979431 -0.999999 0.000979431 
0.0828797 -1.05108 -3.04138 0.000979431 -0.999999 0.000979431 
0.0869607 -1.05108 -3.04138 0.000979431 -0.999999 0.000979431 
0.0910539 -1.05083 -3.04147 0.000979431 -0.999999 0.000979431 
0.0951609 -1.05033 -3.04164 0.000979431 -0.999999 0.000979431 
0.0992701 -1.04983 -3.04181 0.000979431 -0.999999 0.000979431 
0.103464 -1.04783 -3.0425 0.000979431 -0.999999 0.000979431 
0.107725 -1.04483 -3.04352 0.000979431 -0.999999 0.000979431 
0.111894 -1.04358 -3.04395 0.000979431 -0.999999 0.000979431 
0.116054 -1.04258 -3.0443 0.000979431 -0.999999 0.000979431 
0.120169 -1.04233 -3.04438 0.000979431 -0.999999 0.000979431 
0.124302 -1.04183 -3.04455 0.000979431 -0.999999 0.000979431 
0.128865 -1.03508 -3.04687 0.000979431 -0.999999 0.000979431 
0.134623 -1.01183 -3.05485 0.000979431 -0.999999 0.000979431 
-0.0492328 -0.991586 -3.06601 0.000979431 -0.999999 0.000979431 
-0.0445721 -1.01084 -3.05936 0.000979431 -0.999999 0.000979431 
-0.040059 -1.02708 -3.05375 0.000979431 -0.999999 0.000979431 
-0.0357166 -1.03808 -3.04995 0.000979431 -0.999999 0.000979431 
-0.0315946 -1.03883 -3.04969 0.000979431 -0.999999 0.000979431 
-0.0274722 -1.03983 -3.04934 0.000979431 -0.999999 0.000979431 
-0.0232889 -1.04608 -3.04719 0.000979431 -0.999999 0.000979431 
-0.0191893 -1.04683 -3.04693 0.000979431 -0.999999 0.000979431 
-0.0150929 -1.04758 -3.04667 0.000979431 -0.999999 0.000979431 
-0.0109998 -1.04833 -3.04641 0.000979431 -0.999999 0.000979431 
-0.00691097 -1.04883 -3.04624 0.000979431 -0.999999 0.000979431 
-0.00282466 -1.04908 -3.04615 0.000979431 -0.999999 0.000979431 
0.00126089 -1.04883 -3.04624 0.000979431 -0.999999 0.000979431 
0.00534968 -1.04783 -3.04658 0.000979431 -0.999999 0.000979431 
0.00946176 -1.04308 -3.04822 0.000979431 -0.999999 0.000979431 
0.0135675 -1.04208 -3.04857 0.000979431 -0.999999 0.000979431 
0.0176705 -1.04183 -3.04865 0.000979431 -0.999999 0.000979431 
0.0219312 -1.02808 -3.0534 0.000979431 -0.999999 0.000979431 
0.0260763 -1.02708 -3.05375 0.000979431 -0.999999 0.000979431 
0.0302137 -1.02683 -3.05383 0.000979431 -0.999999 0.000979431 
0.0343568 -1.02633 -3.05401 0.000979431 -0.999999 0.000979431 
0.0384868 -1.02658 -3.05392 0.000979431 -0.999999 0.000979431 
0.0426214 -1.02658 -3.05392 0.000979431 -0.999999 0.000979431 
0.0465953 -1.03308 -3.05168 0.000979431 -0.999999 0.000979431 
0.0503122 -1.04808 -3.0465 0.000979431 -0.999999 0.000979431 
0.0543198 -1.05083 -3.04555 0.000979431 -0.999999 0.000979431 
0.058378 -1.05158 -3.04529 0.000979431 -0.999999 0.000979431 
0.0624495 -1.05183 -3.0452 0.000979431 -0.999999 0.000979431 
0.06652 -1.05208 -3.04511 0.000979431 -0.999999 0.000979431 
0.0705988 -1.05208 -3.04511 0.000979431 -0.999999 0.000979431 
0.0746777 -1.05208 -3.04511 0.000979431 -0.999999 0.000979431 
0.0787565 -1.05208 -3.04511 0.000979431 -0.999999 0.000979431 
0.0828464 -1.05183 -3.0452 0.000979431 -0.999999 0.000979431 
0.0869374 -1.05158 -3.04529 0.000979431 -0.999999 0.000979431 
0.0910417 -1.05108 -3.04546 0.000979431 -0.999999 0.000979431 
0.0951609 -1.05033 -3.04572 0.000979431 -0.999999 0.000979431 
0.0993233 -1.04883 -3.04624 0.000979431 -0.999999 0.000979431 
0.103603 -1.04533 -3.04744 0.000979431 -0.999999 0.000979431 
0.107783 -1.04383 -3.04796 0.000979431 -0.999999 0.000979431 
0.111939 -1.04283 -3.04831 0.000979431 -0.999999 0.000979431 
0.116084 -1.04208 -3.04857 0.000979431 -0.999999 0.000979431 
0.120217 -1.04158 -3.04874 0.000979431 -0.999999 0.000979431 
0.124352 -1.04108 -3.04891 0.000979431 -0.999999 0.000979431 
0.1289 -1.03458 -3.05116 0.000979431 -0.999999 0.000979431 
0.13464 -1.01159 -3.0591 0.000979431 -0.999999 0.000979431 
-0.0496287 -0.976088 -3.0756 0.000979431 -0.999999 0.000979431 
-0.0445721 -1.01084 -3.06352 0.000979431 -0.999999 0.000979431 
-0.0400749 -1.02633 -3.05814 0.000979431 -0.999999 0.000979431 
-0.0357119 -1.03833 -3.05397 0.000979431 -0.999999 0.000979431 
-0.0315988 -1.03858 -3.05388 0.000979431 -0.999999 0.000979431 
-0.0274613 -1.04058 -3.05319 0.000979431 -0.999999 0.000979431 
-0.0232734 -1.04733 -3.05084 0.000979431 -0.999999 0.000979431 
-0.019179 -1.04783 -3.05067 0.000979431 -0.999999 0.000979431 
-0.0150828 -1.04883 -3.05032 0.000979431 -0.999999 0.000979431 
-0.010991 -1.04983 -3.04997 0.000979431 -0.999999 0.000979431 
-0.00690543 -1.05033 -3.0498 0.000979431 -0.999999 0.000979431 
-0.00282277 -1.05033 -3.0498 0.000979431 -0.999999 0.000979431 
0.00126005 -1.05008 -3.04989 0.000979431 -0.999999 0.000979431 
0.00534539 -1.04933 -3.05015 0.000979431 -0.999999 0.000979431 
0.00944032 -1.04733 -3.05084 0.000979431 -0.999999 0.000979431 
0.013553 -1.04408 -3.05197 0.000979431 -0.999999 0.000979431 
0.0176588 -1.04308 -3.05232 0.000979431 -0.999999 0.000979431 
0.0219283 -1.02833 -3.05744 0.000979431 -0.999999 0.000979431 
0.0260763 -1.02708 -3.05788 0.000979431 -0.999999 0.000979431 
0.0302177 -1.02658 -3.05805 0.000979431 -0.999999 0.000979431 
0.0343568 -1.02633 -3.05814 0.000979431 -0.999999 0.000979431 
0.0384919 -1.02633 -3.05814 0.000979431 -0.999999 0.000979431 
0.0426214 -1.02658 -3.05805 0.000979431 -0.999999 0.000979431 
0.0464841 -1.03758 -3.05423 0.000979431 -0.999999 0.000979431 
0.0502114 -1.05183 -3.04928 0.000979431 -0.999999 0.000979431 
0.054269 -1.05258 -3.04902 0.000979431 -0.999999 0.000979431 
0.0583311 -1.05308 -3.04884 0.000979431 -0.999999 0.000979431 
0.0623994 -1.05333 -3.04876 0.000979431 -0.999999 0.000979431 
0.0664665 -1.05358 -3.04867 0.000979431 -0.999999 0.000979431 
0.0705421 -1.05358 -3.04867 0.000979431 -0.999999 0.000979431 
0.0746076 -1.05383 -3.04858 0.000979431 -0.999999 0.000979431 
0.0786932 -1.05358 -3.04867 0.000979431 -0.999999 0.000979431 
0.0827909 -1.05308 -3.04884 0.000979431 -0.999999 0.000979431 
0.0869025 -1.05233 -3.0491 0.000979431 -0.999999 0.000979431 
0.0910173 -1.05158 -3.04936 0.000979431 -0.999999 0.000979431 
0.0951355 -1.05083 -3.04963 0.000979431 -0.999999 0.000979431 
0.0994428 -1.04658 -3.0511 0.000979431 -0.999999 0.000979431 
0.103686 -1.04383 -3.05206 0.000979431 -0.999999 0.000979431 
0.107826 -1.04308 -3.05232 0.000979431 -0.999999 0.000979431 
0.111969 -1.04233 -3.05258 0.000979431 -0.999999 0.000979431 
0.1161 -1.04183 -3.05275 0.000979431 -0.999999 0.000979431 
0.120233 -1.04133 -3.05293 0.000979431 -0.999999 0.000979431 
0.124369 -1.04083 -3.0531 0.000979431 -0.999999 0.000979431 
0.128917 -1.03433 -3.05536 0.000979431 -0.999999 0.000979431 
0.135893 -0.993837 -3.06943 0.000979431 -0.999999 0.000979431 
-0.0499928 -0.96184 -3.08483 0.000979431 -0.999999 0.000979431 
-0.0445896 -1.01009 -3.06796 0.000979431 -0.999999 0.000979431 
-0.0400537 -1.02734 -3.06192 0.000979431 -0.999999 0.000979431 
-0.0357024 -1.03883 -3.0579 0.000979431 -0.999999 0.000979431 
-0.0315862 -1.03933 -3.05773 0.000979431 -0.999999 0.000979431 
-0.0274357 -1.04233 -3.05668 0.000979431 -0.999999 0.000979431 
-0.023264 -1.04808 -3.05467 0.000979431 -0.999999 0.000979431 
-0.0191636 -1.04933 -3.05423 0.000979431 -0.999999 0.000979431 
-0.0150748 -1.04983 -3.05406 0.000979431 -0.999999 0.000979431 
-0.0109778 -1.05208 -3.05327 0.000979431 -0.999999 0.000979431 
-0.00689711 -1.05258 -3.05309 0.000979431 -0.999999 0.000979431 
-0.00282013 -1.05208 -3.05327 0.000979431 -0.999999 0.000979431 
0.00125938 -1.05108 -3.05362 0.000979431 -0.999999 0.000979431 
0.00534325 -1.05008 -3.05397 0.000979431 -0.999999 0.000979431 
0.0094315 -1.04908 -3.05432 0.000979431 -0.999999 0.000979431 
0.0135368 -1.04633 -3.05528 0.000979431 -0.999999 0.000979431 
0.017647 -1.04433 -3.05598 0.000979431 -0.999999 0.000979431 
0.0219254 -1.02859 -3.06149 0.000979431 -0.999999 0.000979431 
0.0260763 -1.02709 -3.06201 0.000979431 -0.999999 0.000979431 
0.0302217 -1.02634 -3.06227 0.000979431 -0.999999 0.000979431 
0.0343614 -1.02609 -3.06236 0.000979431 -0.999999 0.000979431 
0.0385122 -1.02534 -3.06262 0.000979431 -0.999999 0.000979431 
0.0423905 -1.03684 -3.0586 0.000979431 -0.999999 0.000979431 
0.0461382 -1.05158 -3.05344 0.000979431 -0.999999 0.000979431 
0.0501643 -1.05358 -3.05274 0.000979431 -0.999999 0.000979431 
0.0542326 -1.05383 -3.05266 0.000979431 -0.999999 0.000979431 
0.058292 -1.05433 -3.05248 0.000979431 -0.999999 0.000979431 
0.0623575 -1.05458 -3.05239 0.000979431 -0.999999 0.000979431 
0.0664131 -1.05508 -3.05222 0.000979431 -0.999999 0.000979431 
0.0704759 -1.05533 -3.05213 0.000979431 -0.999999 0.000979431 
0.0745376 -1.05558 -3.05205 0.000979431 -0.999999 0.000979431 
0.0786194 -1.05533 -3.05213 0.000979431 -0.999999 0.000979431 
0.0827133 -1.05483 -3.05231 0.000979431 -0.999999 0.000979431 
0.0868443 -1.05358 -3.05274 0.000979431 -0.999999 0.000979431 
0.0909686 -1.05258 -3.05309 0.000979431 -0.999999 0.000979431 
0.0950973 -1.05158 -3.05344 0.000979431 -0.999999 0.000979431 
0.0995623 -1.04433 -3.05598 0.000979431 -0.999999 0.000979431 
0.103713 -1.04333 -3.05633 0.000979431 -0.999999 0.000979431 
0.10784 -1.04283 -3.0565 0.000979431 -0.999999 0.000979431 
0.111984 -1.04208 -3.05677 0.000979431 -0.999999 0.000979431 
0.116131 -1.04133 -3.05703 0.000979431 -0.999999 0.000979431 
0.120265 -1.04083 -3.0572 0.000979431 -0.999999 0.000979431 
0.12465 -1.03659 -3.05869 0.000979431 -0.999999 0.000979431 
0.130353 -1.01334 -3.06682 0.000979431 -0.999999 0.000979431 
0.137323 -0.973589 -3.08072 0.000979431 -0.999999 0.000979431 
-0.0451386 -0.986589 -3.08039 0.000979431 -0.999999 0.000979431 
-0.0400643 -1.02684 -3.06623 0.000979431 -0.999999 0.000979431 
-0.0357024 -1.03884 -3.06201 0.000979431 -0.999999 0.000979431 
-0.0315736 -1.04009 -3.06157 0.000979431 -0.999999 0.000979431 
-0.0274247 -1.04309 -3.06051 0.000979431 -0.999999 0.000979431 
-0.0232578 -1.04859 -3.05858 0.000979431 -0.999999 0.000979431 
-0.0191508 -1.05058 -3.05787 0.000979431 -0.999999 0.000979431 
-0.0150486 -1.05308 -3.05699 0.000979431 -0.999999 0.000979431 
-0.0109572 -1.05558 -3.05611 0.000979431 -0.999999 0.000979431 
-0.0068851 -1.05583 -3.05603 0.000979431 -0.999999 0.000979431 
-0.00281597 -1.05483 -3.05638 0.000979431 -0.999999 0.000979431 
0.0012582 -1.05283 -3.05708 0.000979431 -0.999999 0.000979431 
0.00534039 -1.05108 -3.0577 0.000979431 -0.999999 0.000979431 
0.00942897 -1.04958 -3.05823 0.000979431 -0.999999 0.000979431 
0.0135295 -1.04734 -3.05902 0.000979431 -0.999999 0.000979431 
0.0176423 -1.04484 -3.0599 0.000979431 -0.999999 0.000979431 
0.0218906 -1.03159 -3.06456 0.000979431 -0.999999 0.000979431 
0.0260728 -1.02734 -3.06605 0.000979431 -0.999999 0.000979431 
0.0302297 -1.02584 -3.06658 0.000979431 -0.999999 0.000979431 
0.0343704 -1.02559 -3.06667 0.000979431 -0.999999 0.000979431 
0.0385275 -1.02459 -3.06702 0.000979431 -0.999999 0.000979431 
0.0423623 -1.03809 -3.06227 0.000979431 -0.999999 0.000979431 
0.0460764 -1.05408 -3.05664 0.000979431 -0.999999 0.000979431 
0.0501374 -1.05458 -3.05647 0.000979431 -0.999999 0.000979431 
0.0542035 -1.05483 -3.05638 0.000979431 -0.999999 0.000979431 
0.0582607 -1.05533 -3.0562 0.000979431 -0.999999 0.000979431 
0.0623157 -1.05583 -3.05603 0.000979431 -0.999999 0.000979431 
0.0663685 -1.05633 -3.05585 0.000979431 -0.999999 0.000979431 
0.0704192 -1.05683 -3.05567 0.000979431 -0.999999 0.000979431 
0.0744676 -1.05733 -3.0555 0.000979431 -0.999999 0.000979431 
0.078535 -1.05733 -3.0555 0.000979431 -0.999999 0.000979431 
0.0826245 -1.05683 -3.05567 0.000979431 -0.999999 0.000979431 
0.0867395 -1.05583 -3.05603 0.000979431 -0.999999 0.000979431 
0.0908711 -1.05458 -3.05647 0.000979431 -0.999999 0.000979431 
0.0950209 -1.05308 -3.05699 0.000979431 -0.999999 0.000979431 
0.0996021 -1.04359 -3.06034 0.000979431 -0.999999 0.000979431 
0.103741 -1.04284 -3.0606 0.000979431 -0.999999 0.000979431 
0.107869 -1.04234 -3.06078 0.000979431 -0.999999 0.000979431 
0.112014 -1.04159 -3.06104 0.000979431 -0.999999 0.000979431 
0.116146 -1.04109 -3.06122 0.000979431 -0.999999 0.000979431 
0.120297 -1.04034 -3.06148 0.000979431 -0.999999 0.000979431 
0.125826 -1.01884 -3.06904 0.000979431 -0.999999 0.000979431 
0.131414 -0.997838 -3.07643 0.000979431 -0.999999 0.000979431 
-0.0457284 -0.961341 -3.09355 0.000979431 -0.999999 0.000979431 
-0.0404454 -1.00884 -3.07674 0.000979431 -0.999999 0.000979431 
-0.0359303 -1.02684 -3.07036 0.000979431 -0.999999 0.000979431 
-0.0315652 -1.04059 -3.06549 0.000979431 -0.999999 0.000979431 
-0.0274393 -1.04209 -3.06496 0.000979431 -0.999999 0.000979431 
-0.0232392 -1.05009 -3.06213 0.000979431 -0.999999 0.000979431 
-0.0191303 -1.05259 -3.06125 0.000979431 -0.999999 0.000979431 
-0.0150203 -1.05659 -3.05983 0.000979431 -0.999999 0.000979431 
-0.0109484 -1.05709 -3.05965 0.000979431 -0.999999 0.000979431 
-0.00687863 -1.05759 -3.05948 0.000979431 -0.999999 0.000979431 
-0.00281258 -1.05709 -3.05965 0.000979431 -0.999999 0.000979431 
0.00125584 -1.05634 -3.05992 0.000979431 -0.999999 0.000979431 
0.00533396 -1.05334 -3.06098 0.000979431 -0.999999 0.000979431 
0.00942645 -1.05009 -3.06213 0.000979431 -0.999999 0.000979431 
0.0135259 -1.04784 -3.06293 0.000979431 -0.999999 0.000979431 
0.0176352 -1.04559 -3.06372 0.000979431 -0.999999 0.000979431 
0.0217688 -1.04209 -3.06496 0.000979431 -0.999999 0.000979431 
0.0260591 -1.02834 -3.06983 0.000979431 -0.999999 0.000979431 
0.0302816 -1.02259 -3.07187 0.000979431 -0.999999 0.000979431 
0.0344567 -1.02084 -3.07249 0.000979431 -0.999999 0.000979431 
0.0385834 -1.02184 -3.07213 0.000979431 -0.999999 0.000979431 
0.0423567 -1.03834 -3.06629 0.000979431 -0.999999 0.000979431 
0.0460517 -1.05509 -3.06036 0.000979431 -0.999999 0.000979431 
0.0501173 -1.05534 -3.06027 0.000979431 -0.999999 0.000979431 
0.0541745 -1.05584 -3.0601 0.000979431 -0.999999 0.000979431 
0.0582295 -1.05634 -3.05992 0.000979431 -0.999999 0.000979431 
0.0622739 -1.05709 -3.05965 0.000979431 -0.999999 0.000979431 
0.0663151 -1.05784 -3.05939 0.000979431 -0.999999 0.000979431 
0.070353 -1.05859 -3.05912 0.000979431 -0.999999 0.000979431 
0.0744076 -1.05884 -3.05903 0.000979431 -0.999999 0.000979431 
0.0784717 -1.05884 -3.05903 0.000979431 -0.999999 0.000979431 
0.0825469 -1.05859 -3.05912 0.000979431 -0.999999 0.000979431 
0.0866348 -1.05809 -3.0593 0.000979431 -0.999999 0.000979431 
0.0907493 -1.05709 -3.05965 0.000979431 -0.999999 0.000979431 
0.0949063 -1.05534 -3.06027 0.000979431 -0.999999 0.000979431 
0.0996021 -1.04359 -3.06443 0.000979431 -0.999999 0.000979431 
0.103755 -1.04259 -3.06479 0.000979431 -0.999999 0.000979431 
0.107883 -1.04209 -3.06496 0.000979431 -0.999999 0.000979431 
0.112029 -1.04134 -3.06523 0.000979431 -0.999999 0.000979431 
0.116177 -1.04059 -3.06549 0.000979431 -0.999999 0.000979431 
0.120714 -1.03384 -3.06788 0.000979431 -0.999999 0.000979431 
0.126173 -1.01359 -3.07505 0.000979431 -0.999999 0.000979431 
0.133038 -0.97409 -3.08904 0.000979431 -0.999999 0.000979431 
-0.0410595 -0.979841 -3.09124 0.000979431 -0.999999 0.000979431 
-0.0359493 -1.02584 -3.07485 0.000979431 -0.999999 0.000979431 
-0.031561 -1.04084 -3.06951 0.000979431 -0.999999 0.000979431 
-0.027443 -1.04184 -3.06915 0.000979431 -0.999999 0.000979431 
-0.0232236 -1.05134 -3.06577 0.000979431 -0.999999 0.000979431 
-0.0191073 -1.05484 -3.06452 0.000979431 -0.999999 0.000979431 
-0.0150082 -1.05809 -3.06336 0.000979431 -0.999999 0.000979431 
-0.010941 -1.05834 -3.06327 0.000979431 -0.999999 0.000979431 
-0.00687494 -1.05859 -3.06318 0.000979431 -0.999999 0.000979431 
-0.00281031 -1.05859 -3.06318 0.000979431 -0.999999 0.000979431 
0.00125449 -1.05834 -3.06327 0.000979431 -0.999999 0.000979431 
0.00532252 -1.05734 -3.06363 0.000979431 -0.999999 0.000979431 
0.00941006 -1.05334 -3.06505 0.000979431 -0.999999 0.000979431 
0.0135241 -1.04809 -3.06693 0.000979431 -0.999999 0.000979431 
0.0176282 -1.04634 -3.06755 0.000979431 -0.999999 0.000979431 
0.0217398 -1.04459 -3.06817 0.000979431 -0.999999 0.000979431 
0.0260143 -1.03159 -3.0728 0.000979431 -0.999999 0.000979431 
0.0303455 -1.01859 -3.07743 0.000979431 -0.999999 0.000979431 
0.0344975 -1.01859 -3.07743 0.000979431 -0.999999 0.000979431 
0.0386394 -1.01909 -3.07726 0.000979431 -0.999999 0.000979431 
0.0423398 -1.03909 -3.07013 0.000979431 -0.999999 0.000979431 
0.0460455 -1.05534 -3.06434 0.000979431 -0.999999 0.000979431 
0.0501038 -1.05584 -3.06416 0.000979431 -0.999999 0.000979431 
0.0541599 -1.05634 -3.06399 0.000979431 -0.999999 0.000979431 
0.058206 -1.05709 -3.06372 0.000979431 -0.999999 0.000979431 
0.0622488 -1.05784 -3.06345 0.000979431 -0.999999 0.000979431 
0.0662705 -1.05909 -3.06301 0.000979431 -0.999999 0.000979431 
0.0702963 -1.06009 -3.06265 0.000979431 -0.999999 0.000979431 
0.0743476 -1.06034 -3.06256 0.000979431 -0.999999 0.000979431 
0.0784084 -1.06034 -3.06256 0.000979431 -0.999999 0.000979431 
0.0824914 -1.05984 -3.06274 0.000979431 -0.999999 0.000979431 
0.0865766 -1.05934 -3.06292 0.000979431 -0.999999 0.000979431 
0.090664 -1.05884 -3.0631 0.000979431 -0.999999 0.000979431 
0.0947662 -1.05809 -3.06336 0.000979431 -0.999999 0.000979431 
0.0991374 -1.05234 -3.06541 0.000979431 -0.999999 0.000979431 
0.103755 -1.04259 -3.06888 0.000979431 -0.999999 0.000979431 
0.107883 -1.04209 -3.06906 0.000979431 -0.999999 0.000979431 
0.112058 -1.04084 -3.06951 0.000979431 -0.999999 0.000979431 
0.116409 -1.03684 -3.07093 0.000979431 -0.999999 0.000979431 
0.12169 -1.01859 -3.07743 0.000979431 -0.999999 0.000979431 
0.127183 -0.99834 -3.08465 0.000979431 -0.999999 0.000979431 
0.134064 -0.959092 -3.09863 0.000979431 -0.999999 0.000979431 
-0.0414566 -0.961093 -3.10219 0.000979431 -0.999999 0.000979431 
-0.0364098 -1.00159 -3.08768 0.000979431 -0.999999 0.000979431 
-0.0315568 -1.04109 -3.07352 0.000979431 -0.999999 0.000979431 
-0.0274503 -1.04134 -3.07343 0.000979431 -0.999999 0.000979431 
-0.0232236 -1.05134 -3.06985 0.000979431 -0.999999 0.000979431 
-0.0191047 -1.05509 -3.0685 0.000979431 -0.999999 0.000979431 
-0.0149961 -1.05959 -3.06689 0.000979431 -0.999999 0.000979431 
-0.0109337 -1.05959 -3.06689 0.000979431 -0.999999 0.000979431 
-0.00687124 -1.05959 -3.06689 0.000979431 -0.999999 0.000979431 
-0.0028088 -1.05959 -3.06689 0.000979431 -0.999999 0.000979431 
0.00125381 -1.05934 -3.06698 0.000979431 -0.999999 0.000979431 
0.00531823 -1.05884 -3.06716 0.000979431 -0.999999 0.000979431 
0.00938484 -1.05834 -3.06734 0.000979431 -0.999999 0.000979431 
0.0134988 -1.05159 -3.06976 0.000979431 -0.999999 0.000979431 
0.0176258 -1.04659 -3.07155 0.000979431 -0.999999 0.000979431 
0.0217282 -1.04559 -3.07191 0.000979431 -0.999999 0.000979431 
0.0259867 -1.03359 -3.07621 0.000979431 -0.999999 0.000979431 
0.0303654 -1.01734 -3.08203 0.000979431 -0.999999 0.000979431 
0.0345202 -1.01734 -3.08203 0.000979431 -0.999999 0.000979431 
0.0386597 -1.01809 -3.08176 0.000979431 -0.999999 0.000979431 
0.0423173 -1.04009 -3.07388 0.000979431 -0.999999 0.000979431 
0.0460394 -1.05559 -3.06832 0.000979431 -0.999999 0.000979431 
0.0500971 -1.05609 -3.06814 0.000979431 -0.999999 0.000979431 
0.0541526 -1.05659 -3.06797 0.000979431 -0.999999 0.000979431 
0.0581982 -1.05734 -3.0677 0.000979431 -0.999999 0.000979431 
0.0622154 -1.05884 -3.06716 0.000979431 -0.999999 0.000979431 
0.066226 -1.06034 -3.06662 0.000979431 -0.999999 0.000979431 
0.0702395 -1.06159 -3.06617 0.000979431 -0.999999 0.000979431 
0.0742876 -1.06184 -3.06608 0.000979431 -0.999999 0.000979431 
0.0783557 -1.06159 -3.06617 0.000979431 -0.999999 0.000979431 
0.082436 -1.06109 -3.06635 0.000979431 -0.999999 0.000979431 
0.08653 -1.06034 -3.06662 0.000979431 -0.999999 0.000979431 
0.0906152 -1.05984 -3.0668 0.000979431 -0.999999 0.000979431 
0.0947153 -1.05909 -3.06707 0.000979431 -0.999999 0.000979431 
0.0988187 -1.05834 -3.06734 0.000979431 -0.999999 0.000979431 
0.103644 -1.04459 -3.07227 0.000979431 -0.999999 0.000979431 
0.107883 -1.04209 -3.07316 0.000979431 -0.999999 0.000979431 
0.112252 -1.03759 -3.07477 0.000979431 -0.999999 0.000979431 
0.1176 -1.01759 -3.08194 0.000979431 -0.999999 0.000979431 
0.122074 -1.01259 -3.08373 0.000979431 -0.999999 0.000979431 
0.127465 -0.994091 -3.09036 0.000979431 -0.999999 0.000979431 
-0.0368276 -0.979592 -3.0998 0.000979431 -0.999999 0.000979431 
-0.0318593 -1.02309 -3.08411 0.000979431 -0.999999 0.000979431 
-0.0274576 -1.04084 -3.07771 0.000979431 -0.999999 0.000979431 
-0.0232392 -1.05009 -3.07438 0.000979431 -0.999999 0.000979431 
-0.0191252 -1.05309 -3.07329 0.000979431 -0.999999 0.000979431 
-0.0149881 -1.06059 -3.07059 0.000979431 -0.999999 0.000979431 
-0.0109278 -1.06059 -3.07059 0.000979431 -0.999999 0.000979431 
-0.00686755 -1.06059 -3.07059 0.000979431 -0.999999 0.000979431 
-0.00280767 -1.06034 -3.07068 0.000979431 -0.999999 0.000979431 
0.00125348 -1.05984 -3.07086 0.000979431 -0.999999 0.000979431 
0.0053168 -1.05934 -3.07104 0.000979431 -0.999999 0.000979431 
0.00938105 -1.05909 -3.07113 0.000979431 -0.999999 0.000979431 
0.0134482 -1.05859 -3.07131 0.000979431 -0.999999 0.000979431 
0.0176211 -1.04709 -3.07546 0.000979431 -0.999999 0.000979431 
0.0217311 -1.04534 -3.07609 0.000979431 -0.999999 0.000979431 
0.025966 -1.03509 -3.07978 0.000979431 -0.999999 0.000979431 
0.0304972 -1.00909 -3.08916 0.000979431 -0.999999 0.000979431 
0.0346201 -1.01184 -3.08817 0.000979431 -0.999999 0.000979431 
0.0386953 -1.01634 -3.08655 0.000979431 -0.999999 0.000979431 
0.042306 -1.04059 -3.0778 0.000979431 -0.999999 0.000979431 
0.0460455 -1.05534 -3.07248 0.000979431 -0.999999 0.000979431 
0.0500971 -1.05609 -3.07221 0.000979431 -0.999999 0.000979431 
0.0541526 -1.05659 -3.07203 0.000979431 -0.999999 0.000979431 
0.0581826 -1.05784 -3.07158 0.000979431 -0.999999 0.000979431 
0.0621819 -1.05984 -3.07086 0.000979431 -0.999999 0.000979431 
0.0661547 -1.06234 -3.06996 0.000979431 -0.999999 0.000979431 
0.0701828 -1.06309 -3.06969 0.000979431 -0.999999 0.000979431 
0.0742276 -1.06334 -3.0696 0.000979431 -0.999999 0.000979431 
0.0782924 -1.06309 -3.06969 0.000979431 -0.999999 0.000979431 
0.0823805 -1.06234 -3.06996 0.000979431 -0.999999 0.000979431 
0.0864835 -1.06134 -3.07032 0.000979431 -0.999999 0.000979431 
0.0905787 -1.06059 -3.07059 0.000979431 -0.999999 0.000979431 
0.0946771 -1.05984 -3.07086 0.000979431 -0.999999 0.000979431 
0.0987656 -1.05934 -3.07104 0.000979431 -0.999999 0.000979431 
0.103243 -1.05184 -3.07374 0.000979431 -0.999999 0.000979431 
0.107783 -1.04384 -3.07663 0.000979431 -0.999999 0.000979431 
0.112342 -1.03609 -3.07942 0.000979431 -0.999999 0.000979431 
0.117584 -1.01784 -3.086 0.000979431 -0.999999 0.000979431 
0.122987 -0.998341 -3.09304 0.000979431 -0.999999 0.000979431 
0.127895 -0.987592 -3.09691 0.000979431 -0.999999 0.000979431 
-0.0371979 -0.960094 -3.11111 0.000979431 -0.999999 0.000979431 
-0.0319013 -1.02059 -3.08916 0.000979431 -0.999999 0.000979431 
-0.0274613 -1.04059 -3.0819 0.000979431 -0.999999 0.000979431 
-0.0233417 -1.04184 -3.08145 0.000979431 -0.999999 0.000979431 
-0.0191406 -1.05159 -3.07791 0.000979431 -0.999999 0.000979431 
-0.014982 -1.06134 -3.07438 0.000979431 -0.999999 0.000979431 
-0.0109249 -1.06109 -3.07447 0.000979431 -0.999999 0.000979431 
-0.0068657 -1.06109 -3.07447 0.000979431 -0.999999 0.000979431 
-0.00280691 -1.06084 -3.07456 0.000979431 -0.999999 0.000979431 
0.00125314 -1.06034 -3.07474 0.000979431 -0.999999 0.000979431 
0.00531537 -1.05984 -3.07492 0.000979431 -0.999999 0.000979431 
0.00937853 -1.05959 -3.07501 0.000979431 -0.999999 0.000979431 
0.0134446 -1.05909 -3.07519 0.000979431 -0.999999 0.000979431 
0.0176305 -1.04609 -3.07991 0.000979431 -0.999999 0.000979431 
0.0217456 -1.04409 -3.08063 0.000979431 -0.999999 0.000979431 
0.0259109 -1.03909 -3.08245 0.000979431 -0.999999 0.000979431 
0.0305092 -1.00834 -3.0936 0.000979431 -0.999999 0.000979431 
0.0346881 -1.00809 -3.09369 0.000979431 -0.999999 0.000979431 
0.038797 -1.01134 -3.09251 0.000979431 -0.999999 0.000979431 
0.0423117 -1.04034 -3.08199 0.000979431 -0.999999 0.000979431 
0.0463606 -1.04259 -3.08118 0.000979431 -0.999999 0.000979431 
0.0501105 -1.05559 -3.07646 0.000979431 -0.999999 0.000979431 
0.0541526 -1.05659 -3.0761 0.000979431 -0.999999 0.000979431 
0.0581747 -1.05809 -3.07555 0.000979431 -0.999999 0.000979431 
0.0621234 -1.06159 -3.07429 0.000979431 -0.999999 0.000979431 
0.0660924 -1.06409 -3.07338 0.000979431 -0.999999 0.000979431 
0.0701261 -1.06459 -3.0732 0.000979431 -0.999999 0.000979431 
0.0741576 -1.06509 -3.07302 0.000979431 -0.999999 0.000979431 
0.0782291 -1.06459 -3.0732 0.000979431 -0.999999 0.000979431 
0.082325 -1.06359 -3.07356 0.000979431 -0.999999 0.000979431 
0.0864369 -1.06234 -3.07401 0.000979431 -0.999999 0.000979431 
0.0905421 -1.06134 -3.07438 0.000979431 -0.999999 0.000979431 
0.0946389 -1.06059 -3.07465 0.000979431 -0.999999 0.000979431 
0.098739 -1.05984 -3.07492 0.000979431 -0.999999 0.000979431 
0.102925 -1.05759 -3.07574 0.000979431 -0.999999 0.000979431 
0.107653 -1.04609 -3.07991 0.000979431 -0.999999 0.000979431 
0.112401 -1.03509 -3.0839 0.000979431 -0.999999 0.000979431 
0.117662 -1.01659 -3.09061 0.000979431 -0.999999 0.000979431 
0.123403 -0.991842 -3.09959 0.000979431 -0.999999 0.000979431 
0.128624 -0.976593 -3.10512 0.000979431 -0.999999 0.000979431 
-0.0372122 -0.959345 -3.11566 0.000979431 -0.999999 0.000979431 
-0.0319896 -1.01534 -3.09522 0.000979431 -0.999999 0.000979431 
-0.0274686 -1.04009 -3.08619 0.000979431 -0.999999 0.000979431 
-0.0233511 -1.04109 -3.08582 0.000979431 -0.999999 0.000979431 
-0.0191483 -1.05084 -3.08226 0.000979431 -0.999999 0.000979431 
-0.01498 -1.06159 -3.07834 0.000979431 -0.999999 0.000979431 
-0.0109219 -1.06159 -3.07834 0.000979431 -0.999999 0.000979431 
-0.00686477 -1.06134 -3.07843 0.000979431 -0.999999 0.000979431 
-0.00280653 -1.06109 -3.07852 0.000979431 -0.999999 0.000979431 
0.00125297 -1.06059 -3.07871 0.000979431 -0.999999 0.000979431 
0.00531466 -1.06009 -3.07889 0.000979431 -0.999999 0.000979431 
0.00937853 -1.05959 -3.07907 0.000979431 -0.999999 0.000979431 
0.0134428 -1.05934 -3.07916 0.000979431 -0.999999 0.000979431 
0.017654 -1.04359 -3.08491 0.000979431 -0.999999 0.000979431 
0.021763 -1.04259 -3.08528 0.000979431 -0.999999 0.000979431 
0.025873 -1.04184 -3.08555 0.000979431 -0.999999 0.000979431 
0.0305052 -1.00859 -3.09768 0.000979431 -0.999999 0.000979431 
0.0346881 -1.00809 -3.09787 0.000979431 -0.999999 0.000979431 
0.0388631 -1.00809 -3.09787 0.000979431 -0.999999 0.000979431 
0.0426495 -1.02534 -3.09157 0.000979431 -0.999999 0.000979431 
0.0463791 -1.04184 -3.08555 0.000979431 -0.999999 0.000979431 
0.0502921 -1.04884 -3.083 0.000979431 -0.999999 0.000979431 
0.0542108 -1.05459 -3.0809 0.000979431 -0.999999 0.000979431 
0.0581826 -1.05784 -3.07971 0.000979431 -0.999999 0.000979431 
0.0620899 -1.06259 -3.07798 0.000979431 -0.999999 0.000979431 
0.0660478 -1.06534 -3.07697 0.000979431 -0.999999 0.000979431 
0.0700694 -1.06609 -3.0767 0.000979431 -0.999999 0.000979431 
0.0740876 -1.06684 -3.07643 0.000979431 -0.999999 0.000979431 
0.0781342 -1.06684 -3.07643 0.000979431 -0.999999 0.000979431 
0.0822363 -1.06559 -3.07688 0.000979431 -0.999999 0.000979431 
0.0863671 -1.06384 -3.07752 0.000979431 -0.999999 0.000979431 
0.0904933 -1.06234 -3.07807 0.000979431 -0.999999 0.000979431 
0.0946007 -1.06134 -3.07843 0.000979431 -0.999999 0.000979431 
0.0986859 -1.06084 -3.07862 0.000979431 -0.999999 0.000979431 
0.10287 -1.05859 -3.07944 0.000979431 -0.999999 0.000979431 
0.107581 -1.04734 -3.08354 0.000979431 -0.999999 0.000979431 
0.112416 -1.03484 -3.0881 0.000979431 -0.999999 0.000979431 
0.117971 -1.01159 -3.09659 0.000979431 -0.999999 0.000979431 
0.123643 -0.988093 -3.10517 0.000979431 -0.999999 0.000979431 
0.129749 -0.959595 -3.11557 0.000979431 -0.999999 0.000979431 
-0.0372169 -0.959096 -3.12003 0.000979431 -0.999999 0.000979431 
-0.0319896 -1.01534 -3.09938 0.000979431 -0.999999 0.000979431 
-0.0274832 -1.03909 -3.09066 0.000979431 -0.999999 0.000979431 
-0.0233542 -1.04084 -3.09002 0.000979431 -0.999999 0.000979431 
-0.0192456 -1.04134 -3.08983 0.000979431 -0.999999 0.000979431 
-0.0109205 -1.06184 -3.08231 0.000979431 -0.999999 0.000979431 
-0.00686385 -1.06159 -3.0824 0.000979431 -0.999999 0.000979431 
-0.00280653 -1.06109 -3.08258 0.000979431 -0.999999 0.000979431 
0.00531394 -1.06034 -3.08286 0.000979431 -0.999999 0.000979431 
0.00937727 -1.05984 -3.08304 0.000979431 -0.999999 0.000979431 
0.0135603 -1.04309 -3.08919 0.000979431 -0.999999 0.000979431 
0.0176658 -1.04234 -3.08947 0.000979431 -0.999999 0.000979431 
0.0217688 -1.04209 -3.08956 0.000979431 -0.999999 0.000979431 
0.025873 -1.04184 -3.08965 0.000979431 -0.999999 0.000979431 
0.0305132 -1.00809 -3.10204 0.000979431 -0.999999 0.000979431 
0.0346972 -1.00759 -3.10222 0.000979431 -0.999999 0.000979431 
0.0388733 -1.00759 -3.10222 0.000979431 -0.999999 0.000979431 
0.0430662 -1.00684 -3.1025 0.000979431 -0.999999 0.000979431 
0.0464471 -1.03909 -3.09066 0.000979431 -0.999999 0.000979431 
0.050319 -1.04784 -3.08745 0.000979431 -0.999999 0.000979431 
0.0543271 -1.05059 -3.08644 0.000979431 -0.999999 0.000979431 
0.0582529 -1.05559 -3.0846 0.000979431 -0.999999 0.000979431 
0.0621067 -1.06209 -3.08221 0.000979431 -0.999999 0.000979431 
0.0659498 -1.06809 -3.08001 0.000979431 -0.999999 0.000979431 
0.0699654 -1.06884 -3.07974 0.000979431 -0.999999 0.000979431 
0.0739976 -1.06909 -3.07964 0.000979431 -0.999999 0.000979431 
0.0780393 -1.06909 -3.07964 0.000979431 -0.999999 0.000979431 
0.0821031 -1.06859 -3.07983 0.000979431 -0.999999 0.000979431 
0.0862274 -1.06684 -3.08047 0.000979431 -0.999999 0.000979431 
0.0903837 -1.06459 -3.0813 0.000979431 -0.999999 0.000979431 
0.094537 -1.06259 -3.08203 0.000979431 -0.999999 0.000979431 
0.0986461 -1.06159 -3.0824 0.000979431 -0.999999 0.000979431 
0.102787 -1.06009 -3.08295 0.000979431 -0.999999 0.000979431 
0.107596 -1.04709 -3.08772 0.000979431 -0.999999 0.000979431 
0.112431 -1.03459 -3.09231 0.000979431 -0.999999 0.000979431 
0.118048 -1.01034 -3.10121 0.000979431 -0.999999 0.000979431 
0.124364 -0.976845 -3.11351 0.000979431 -0.999999 0.000979431 
-0.0329433 -0.958597 -3.1245 0 0 0 
-0.0278377 -1.01484 -3.10372 0 0 0 
-0.0192508 -1.04084 -3.09412 0 0 0 
0.00531394 -1.06034 -3.08692 0.000979431 -0.999999 0.000979431 
0.00946302 -1.04284 -3.09338 0.000979431 -0.999999 0.000979431 
0.0135639 -1.04259 -3.09347 0.000979431 -0.999999 0.000979431 
0.0217688 -1.04209 -3.09366 0.000979431 -0.999999 0.000979431 
0.0258695 -1.04209 -3.09366 0.000979431 -0.999999 0.000979431 
0.0303255 -1.01984 -3.10187 0.000979431 -0.999999 0.000979431 
0.0350376 -0.988845 -3.11332 0.000979431 -0.999999 0.000979431 
0.0394479 -0.979345 -3.11683 0.000979431 -0.999999 0.000979431 
0.0434717 -0.988845 -3.11332 0.000979431 -0.999999 0.000979431 
0.0464718 -1.03809 -3.09513 0.000979431 -0.999999 0.000979431 
0.0502921 -1.04884 -3.09116 0.000979431 -0.999999 0.000979431 
0.0543271 -1.05059 -3.09052 0.000979431 -0.999999 0.000979431 
0.0581826 -1.05784 -3.08784 0.000979431 -0.999999 0.000979431 
0.0621652 -1.06034 -3.08692 0.000979431 -0.999999 0.000979431 
0.0658786 -1.07009 -3.08332 0.000979431 -0.999999 0.000979431 
0.0699086 -1.07034 -3.08322 0.000979431 -0.999999 0.000979431 
0.0739376 -1.07059 -3.08313 0.000979431 -0.999999 0.000979431 
0.077976 -1.07059 -3.08313 0.000979431 -0.999999 0.000979431 
0.0820255 -1.07034 -3.08322 0.000979431 -0.999999 0.000979431 
0.0860877 -1.06984 -3.08341 0.000979431 -0.999999 0.000979431 
0.0901765 -1.06884 -3.08378 0.000979431 -0.999999 0.000979431 
0.0943206 -1.06684 -3.08452 0.000979431 -0.999999 0.000979431 
0.0985133 -1.06409 -3.08553 0.000979431 -0.999999 0.000979431 
0.102718 -1.06134 -3.08655 0.000979431 -0.999999 0.000979431 
0.107596 -1.04709 -3.09181 0.000979431 -0.999999 0.000979431 
0.113118 -1.02309 -3.10067 0.000979431 -0.999999 0.000979431 
0.11944 -0.987845 -3.11369 0.000979431 -0.999999 0.000979431 
0.125484 -0.959347 -3.12422 0.000979431 -0.999999 0.000979431 
0.00946554 -1.04234 -3.09766 0 0 0 
0.0217688 -1.04209 -3.09776 0.000979431 -0.999999 0.000979431 
0.025873 -1.04184 -3.09785 0.000979431 -0.999999 0.000979431 
0.0303255 -1.01984 -3.10602 0.000979431 -0.999999 0.000979431 
0.0354915 -0.963847 -3.12683 0.000979431 -0.999999 0.000979431 
0.0397631 -0.963847 -3.12683 0.000979431 -0.999999 0.000979431 
0.0436856 -0.979346 -3.12107 0.000979431 -0.999999 0.000979431 
0.0464903 -1.03734 -3.09952 0.000979431 -0.999999 0.000979431 
0.0502248 -1.05134 -3.09432 0.000979431 -0.999999 0.000979431 
0.0542326 -1.05384 -3.09339 0.000979431 -0.999999 0.000979431 
0.0581122 -1.06009 -3.09107 0.000979431 -0.999999 0.000979431 
0.0621652 -1.06034 -3.09098 0.000979431 -0.999999 0.000979431 
0.0658518 -1.07084 -3.08707 0.000979431 -0.999999 0.000979431 
0.0698803 -1.07109 -3.08698 0.000979431 -0.999999 0.000979431 
0.0739176 -1.07109 -3.08698 0.000979431 -0.999999 0.000979431 
0.0779549 -1.07109 -3.08698 0.000979431 -0.999999 0.000979431 
0.0820033 -1.07084 -3.08707 0.000979431 -0.999999 0.000979431 
0.0860761 -1.07009 -3.08735 0.000979431 -0.999999 0.000979431 
0.0901521 -1.06934 -3.08763 0.000979431 -0.999999 0.000979431 
0.0942442 -1.06834 -3.088 0.000979431 -0.999999 0.000979431 
0.0983539 -1.06709 -3.08847 0.000979431 -0.999999 0.000979431 
0.102566 -1.06409 -3.08958 0.000979431 -0.999999 0.000979431 
0.107624 -1.04659 -3.09608 0.000979431 -0.999999 0.000979431 
0.113923 -1.00959 -3.10983 0.000979431 -0.999999 0.000979431 
0.120105 -0.977096 -3.1219 0.000979431 -0.999999 0.000979431 
0.0217717 -1.04184 -3.10195 0.000979431 -0.999999 0.000979431 
0.025873 -1.04184 -3.10195 0.000979431 -0.999999 0.000979431 
0.0303255 -1.01984 -3.11017 0.000979431 -0.999999 0.000979431 
0.0354915 -0.963848 -3.1311 0.000979431 -0.999999 0.000979431 
0.0397631 -0.963848 -3.1311 0.000979431 -0.999999 0.000979431 
0.0436856 -0.979347 -3.1253 0.000979431 -0.999999 0.000979431 
0.0464965 -1.03709 -3.10372 0.000979431 -0.999999 0.000979431 
0.0501307 -1.05484 -3.09709 0.000979431 -0.999999 0.000979431 
0.0540581 -1.05984 -3.09522 0.000979431 -0.999999 0.000979431 
0.0581044 -1.06034 -3.09504 0.000979431 -0.999999 0.000979431 
0.0621652 -1.06034 -3.09504 0.000979431 -0.999999 0.000979431 
0.0662349 -1.06009 -3.09513 0.000979431 -0.999999 0.000979431 
0.0698519 -1.07184 -3.09074 0.000979431 -0.999999 0.000979431 
0.0738876 -1.07184 -3.09074 0.000979431 -0.999999 0.000979431 
0.0779338 -1.07159 -3.09083 0.000979431 -0.999999 0.000979431 
0.0819811 -1.07134 -3.09092 0.000979431 -0.999999 0.000979431 
0.0860528 -1.07059 -3.0912 0.000979431 -0.999999 0.000979431 
0.0901399 -1.06959 -3.09158 0.000979431 -0.999999 0.000979431 
0.0942187 -1.06884 -3.09186 0.000979431 -0.999999 0.000979431 
0.0983141 -1.06784 -3.09223 0.000979431 -0.999999 0.000979431 
0.10258 -1.06384 -3.09373 0.000979431 -0.999999 0.000979431 
0.107653 -1.04609 -3.10036 0.000979431 -0.999999 0.000979431 
0.11452 -0.999595 -3.11774 0.000979431 -0.999999 0.000979431 
0.0217717 -1.04184 -3.10605 0.000979431 -0.999999 0.000979431 
0.0261762 -1.01984 -3.11432 0.000979431 -0.999999 0.000979431 
0.0312198 -0.963848 -3.13537 0 0 0 
0.0354915 -0.963848 -3.13537 0.000979431 -0.999999 0.000979431 
0.0397631 -0.963848 -3.13537 0.000979431 -0.999999 0.000979431 
0.0428016 -1.01859 -3.11479 0.000979431 -0.999999 0.000979431 
0.0460085 -1.05684 -3.10041 0.000979431 -0.999999 0.000979431 
0.0499962 -1.05984 -3.09928 0.000979431 -0.999999 0.000979431 
0.0540509 -1.06009 -3.09919 0.000979431 -0.999999 0.000979431 
0.0580966 -1.06059 -3.099 0.000979431 -0.999999 0.000979431 
0.0901399 -1.06959 -3.09562 0.000979431 -0.999999 0.000979431 
0.094206 -1.06909 -3.0958 0.000979431 -0.999999 0.000979431 
0.0983008 -1.06809 -3.09618 0.000979431 -0.999999 0.000979431 
0.103617 -1.04509 -3.10483 0.000979431 -0.999999 0.000979431 
0.0428016 -1.0186 -3.11894 0.000979431 -0.999999 0.000979431 
0.0459529 -1.05909 -3.10363 0.000979431 -0.999999 0.000979431 
0.0499828 -1.06034 -3.10315 0.000979431 -0.999999 0.000979431 
0.0540436 -1.06034 -3.10315 0.000979431 -0.999999 0.000979431 
0.058081 -1.06109 -3.10287 0.000979431 -0.999999 0.000979431 
0.0955047 -1.04359 -3.10949 0 0 0 
0.0459467 -1.05934 -3.10759 0.000979431 -0.999999 0.000979431 
0.0499962 -1.05984 -3.1074 0.000979431 -0.999999 0.000979431 
0.0540363 -1.06059 -3.10712 0.000979431 -0.999999 0.000979431 
0.0459405 -1.05959 -3.11156 0.000979431 -0.999999 0.000979431 
0.0499761 -1.06059 -3.11118 0.000979431 -0.999999 0.000979431 
0.050003 -1.0596 -3.11562 0 0 0 
0.0538255 -1.06784 -3.11245 0 0 0 
0.0801804 -1.01835 -3.14394 0 0 0 
0.0834566 -1.0381 -3.13621 0 0 0 
0.0875892 -1.0376 -3.13641 0.000977516 0.999999 0.000977516 
0.0924431 -1.02235 -3.14237 0.000977516 0.999999 0.000977516 
-0.0227448 -1.08985 -3.11996 0 0 0 
0.0718469 -1.0191 -3.14779 0 0 0 
0.0759978 -1.0191 -3.14779 0 0 0 
0.07921 -1.04135 -3.13904 0 0 0 
0.0859597 -1.0726 -3.12675 0.000977516 0.999999 0.000977516 
0.0911026 -1.04985 -3.1357 0.000977516 0.999999 0.000977516 
0.0965869 -1.02235 -3.14651 0 0 0 
-0.0227448 -1.08985 -3.12396 0.000979431 -0.999999 0.000979431 
-0.0187485 -1.08985 -3.12396 0.000979431 -0.999999 0.000979431 
0.0779865 -1.07035 -3.13167 0 0 0 
0.0810715 -1.09185 -3.12317 0 0 0 
0.0850518 -1.0921 -3.12307 0.000977516 0.999999 0.000977516 
0.089031 -1.09235 -3.12297 0.000977516 0.999999 0.000977516 
-0.0227448 -1.08985 -3.12795 0.000979431 -0.999999 0.000979431 
-0.0191739 -1.04835 -3.14446 0.000979431 -0.999999 0.000979431 
0.079951 -1.1171 -3.12105 0 0 0 
0.0838878 -1.1171 -3.12105 0 0 0 
0.0760142 -1.1171 -3.12499 0 0 0 
0.0821768 -1.15384 -3.11021 0 0 0 
0.0782981 -1.15434 -3.11386 0 0 0 
0.0816413 -1.16534 -3.10941 0 0 0 
0.0860333 -1.15384 -3.11406 0 0 0 
-0.00663841 -1.1226 -3.13062 0.000979431 -0.999999 0.000979431 
-0.00271476 -1.12185 -3.13093 0.000979431 -0.999999 0.000979431 
0.074411 -1.1551 -3.11741 0 0 0 
0.07781 -1.16534 -3.11324 0 0 0 
-0.0105544 -1.1241 -3.13393 0.000979431 -0.999999 0.000979431 
-0.00663749 -1.12285 -3.13444 0.000979431 -0.999999 0.000979431 
-0.00271287 -1.1231 -3.13434 0.000979431 -0.999999 0.000979431 
0.00511379 -1.13035 -3.13138 0 0 0 
0.0782648 -1.1551 -3.12126 0 0 0 
-0.0144577 -1.12635 -3.13693 0.000977516 0.999999 0.000977516 
-0.0105367 -1.1271 -3.13662 0.000977516 0.999999 0.000977516 
-0.00661901 -1.12785 -3.13631 0.000979431 -0.999999 0.000979431 
0.00120594 -1.13035 -3.13528 0 0 0 
-0.0183692 -1.12685 -3.14063 0 0 0 
-0.0142904 -1.1471 -3.13227 0.000977516 0.999999 0.000977516 
-0.010425 -1.1461 -3.13268 0.000977516 0.999999 0.000977516 
-0.00661531 -1.12885 -3.13981 0.000977516 0.999999 0.000977516 
-0.00270229 -1.1301 -3.13929 0.000977516 0.999999 0.000977516 
0.00511165 -1.1311 -3.13888 0 0 0 
-0.0177542 -1.18685 -3.11964 0.000977516 0.999999 0.000977516 
-0.0139657 -1.18735 -3.11943 0.000977516 0.999999 0.000977516 
-0.0102706 -1.17235 -3.12566 0.000977516 0.999999 0.000977516 
-0.00655249 -1.14585 -3.13666 0.000977516 0.999999 0.000977516 
-0.00268039 -1.1446 -3.13718 0.000979431 -0.999999 0.000979431 
0.00120493 -1.13185 -3.14247 0.000977516 0.999999 0.000977516 
0.00511094 -1.13135 -3.14268 0 0 0 
-0.0175953 -1.20235 -3.11695 0.000979431 -0.999999 0.000979431 
-0.0138448 -1.20235 -3.11695 0.000977516 0.999999 0.000977516 
-0.0101824 -1.18735 -3.12321 0.000977516 0.999999 0.000977516 
-0.0064564 -1.17185 -3.12968 0.000977516 0.999999 0.000977516 
-0.00268001 -1.14485 -3.14095 0.000979431 -0.999999 0.000979431 
0.00119684 -1.14385 -3.14137 0.000979431 -0.999999 0.000979431 
0.0444518 -1.11985 -3.15138 0 0 0 
0.0481742 -1.1276 -3.14815 0 0 0 
-0.0818537 -1.10835 -3.16014 0.000977516 0.999999 0.000977516 
-0.0766607 -1.1371 -3.14808 0.000977516 0.999999 0.000977516 
-0.0727676 -1.1371 -3.14808 0.000977516 0.999999 0.000977516 
-0.0213458 -1.20235 -3.1207 0.000979431 -0.999999 0.000979431 
-0.0175927 -1.2026 -3.12059 0.000979431 -0.999999 0.000979431 
-0.0138407 -1.20285 -3.12049 0.000979431 -0.999999 0.000979431 
-0.0100883 -1.20335 -3.12028 0.000979431 -0.999999 0.000979431 
-0.00639819 -1.1876 -3.12689 0.000977516 0.999999 0.000977516 
0.00117846 -1.1711 -3.13381 0 0 0 
0.00499799 -1.17085 -3.13392 0 0 0 
0.0089649 -1.1416 -3.14619 0 0 0 
0.0469505 -1.1731 -3.13297 0 0 0 
-0.0858214 -1.1081 -3.1642 0.000977516 0.999999 0.000977516 
-0.0805651 -1.13685 -3.15207 0.000977516 0.999999 0.000977516 
-0.0759185 -1.15435 -3.14469 0.000977516 0.999999 0.000977516 
-0.0718794 -1.15885 -3.14279 0.000977516 0.999999 0.000977516 
-0.0679758 -1.16035 -3.14216 0.000977516 0.999999 0.000977516 
-0.063705 -1.1721 -3.13721 0.000979431 -0.999999 0.000979431 
-0.0597512 -1.1761 -3.13552 0.000979431 -0.999999 0.000979431 
-0.0480502 -1.1861 -3.1313 0 0 0 
-0.0288511 -1.2021 -3.12455 0.000979431 -0.999999 0.000979431 
-0.0250964 -1.20235 -3.12445 0.000979431 -0.999999 0.000979431 
-0.0213427 -1.2026 -3.12434 0.000979431 -0.999999 0.000979431 
-0.0175902 -1.20285 -3.12424 0.000979431 -0.999999 0.000979431 
-0.0138367 -1.20335 -3.12403 0.000979431 -0.999999 0.000979431 
-0.0100839 -1.2041 -3.12371 0.000979431 -0.999999 0.000979431 
-0.00633536 -1.2046 -3.1235 0.000979431 -0.999999 0.000979431 
0.0048922 -1.20785 -3.12213 0.000979431 -0.999999 0.000979431 
0.0086282 -1.20835 -3.12192 0.000979431 -0.999999 0.000979431 
0.043136 -1.1731 -3.13678 0.000979431 -0.999999 0.000979431 
0.0469505 -1.1731 -3.13678 0.000977516 0.999999 0.000977516 
0.0502488 -1.19085 -3.1293 0.000979431 -0.999999 0.000979431 
0.0540244 -1.19085 -3.1293 0 0 0 
-0.0852053 -1.1211 -3.16264 0.000977516 0.999999 0.000977516 
-0.0797401 -1.1551 -3.14823 0.000979431 -0.999999 0.000979431 
-0.0758002 -1.1571 -3.14738 0.000979431 -0.999999 0.000979431 
-0.0718283 -1.1601 -3.14611 0.000979431 -0.999999 0.000979431 
-0.0674926 -1.17285 -3.1407 0.000979431 -0.999999 0.000979431 
-0.0634952 -1.17785 -3.13858 0.000979431 -0.999999 0.000979431 
-0.059614 -1.1801 -3.13763 0.000979431 -0.999999 0.000979431 
-0.0518138 -1.18685 -3.13477 0.000979431 -0.999999 0.000979431 
-0.0477937 -1.19535 -3.13116 0.000979431 -0.999999 0.000979431 
-0.0439448 -1.1986 -3.12979 0.000979431 -0.999999 0.000979431 
-0.0401569 -1.19985 -3.12926 0.000979431 -0.999999 0.000979431 
-0.036385 -1.2006 -3.12894 0.000979431 -0.999999 0.000979431 
-0.0326117 -1.2016 -3.12852 0.000979431 -0.999999 0.000979431 
-0.0288511 -1.2021 -3.1283 0.000979431 -0.999999 0.000979431 
-0.0250927 -1.2026 -3.12809 0.000979431 -0.999999 0.000979431 
-0.0213365 -1.2031 -3.12788 0.000979431 -0.999999 0.000979431 
-0.0175825 -1.2036 -3.12767 0.000979431 -0.999999 0.000979431 
-0.0138306 -1.2041 -3.12745 0.000979431 -0.999999 0.000979431 
-0.010081 -1.2046 -3.12724 0.000979431 -0.999999 0.000979431 
-0.00633167 -1.2056 -3.12682 0.000979431 -0.999999 0.000979431 
-0.00258635 -1.20685 -3.12629 0.000979431 -0.999999 0.000979431 
0.00115368 -1.20785 -3.12587 0.000979431 -0.999999 0.000979431 
0.00489149 -1.2081 -3.12576 0.000979431 -0.999999 0.000979431 
0.00862694 -1.2086 -3.12555 0.000979431 -0.999999 0.000979431 
0.0123729 -1.20735 -3.12608 0 0 0 
0.043136 -1.1731 -3.1406 0.000979431 -0.999999 0.000979431 
0.0464731 -1.19085 -3.13307 0.000979431 -0.999999 0.000979431 
0.0502488 -1.19085 -3.13307 0.000979431 -0.999999 0.000979431 
0.0675369 -1.2306 -3.11622 0 0 0 
0.0755358 -1.2166 -3.12216 0.000979431 -0.999999 0.000979431 
0.0793483 -1.2146 -3.123 0.000979431 -0.999999 0.000979431 
0.0831574 -1.21285 -3.12375 0.000979431 -0.999999 0.000979431 
-0.0844944 -1.1361 -3.16018 0.000979431 -0.999999 0.000979431 
-0.0796722 -1.1566 -3.15144 0.000979431 -0.999999 0.000979431 
-0.0757357 -1.1586 -3.15059 0.000979431 -0.999999 0.000979431 
-0.0713382 -1.1721 -3.14484 0.000979431 -0.999999 0.000979431 
-0.067309 -1.1776 -3.14249 0.000979431 -0.999999 0.000979431 
-0.0634314 -1.1796 -3.14164 0.000979431 -0.999999 0.000979431 
-0.059554 -1.18185 -3.14068 0.000979431 -0.999999 0.000979431 
-0.0556062 -1.1866 -3.13866 0.000979431 -0.999999 0.000979431 
-0.0517016 -1.1906 -3.13695 0.000979431 -0.999999 0.000979431 
-0.0477868 -1.1956 -3.13482 0.000979431 -0.999999 0.000979431 
-0.0439448 -1.1986 -3.13354 0.000979431 -0.999999 0.000979431 
-0.0401569 -1.19985 -3.13301 0.000979431 -0.999999 0.000979431 
-0.036385 -1.2006 -3.13269 0.000979431 -0.999999 0.000979431 
-0.0326117 -1.2016 -3.13227 0.000979431 -0.999999 0.000979431 
-0.0288469 -1.20235 -3.13195 0.000979431 -0.999999 0.000979431 
-0.025089 -1.20285 -3.13173 0.000979431 -0.999999 0.000979431 
-0.0213334 -1.20335 -3.13152 0.000979431 -0.999999 0.000979431 
-0.0175773 -1.2041 -3.1312 0.000979431 -0.999999 0.000979431 
-0.0138266 -1.2046 -3.13099 0.000979431 -0.999999 0.000979431 
-0.0100766 -1.20535 -3.13067 0.000979431 -0.999999 0.000979431 
-0.00632982 -1.2061 -3.13035 0.000979431 -0.999999 0.000979431 
-0.00258635 -1.20685 -3.13003 0.000979431 -0.999999 0.000979431 
0.00115385 -1.2076 -3.12971 0.000979431 -0.999999 0.000979431 
0.0048922 -1.20785 -3.1296 0.000979431 -0.999999 0.000979431 
0.0123729 -1.20735 -3.12982 0.000979431 -0.999999 0.000979431 
0.016289 -1.1886 -3.13781 0.000979431 -0.999999 0.000979431 
0.044075 -1.1351 -3.1606 0.000979431 -0.999999 0.000979431 
0.0469505 -1.1731 -3.14441 0.000979431 -0.999999 0.000979431 
0.0502488 -1.19085 -3.13685 0.000979431 -0.999999 0.000979431 
0.0533757 -1.2116 -3.128 0 0 0 
0.0712257 -1.2306 -3.11991 0.000979431 -0.999999 0.000979431 
0.0748924 -1.2311 -3.1197 0.000977516 0.999999 0.000977516 
0.0793134 -1.21535 -3.12641 0.000979431 -0.999999 0.000979431 
0.0831574 -1.21285 -3.12747 0.000979431 -0.999999 0.000979431 
0.0868977 -1.2126 -3.12758 0.000979431 -0.999999 0.000979431 
-0.0839848 -1.14685 -3.15947 0.000979431 -0.999999 0.000979431 
-0.0796383 -1.15735 -3.15497 0.000979431 -0.999999 0.000979431 
-0.0751548 -1.1721 -3.14865 0.000979431 -0.999999 0.000979431 
-0.0711238 -1.17735 -3.1464 0.000979431 -0.999999 0.000979431 
-0.0672413 -1.17935 -3.14555 0.000979431 -0.999999 0.000979431 
-0.0633858 -1.18085 -3.1449 0.000979431 -0.999999 0.000979431 
-0.0593483 -1.18785 -3.14191 0.000979431 -0.999999 0.000979431 
-0.0554377 -1.19185 -3.14019 0.000979431 -0.999999 0.000979431 
-0.0516268 -1.1931 -3.13966 0.000979431 -0.999999 0.000979431 
-0.0477937 -1.19535 -3.13869 0.000979431 -0.999999 0.000979431 
-0.0439448 -1.1986 -3.1373 0.000979431 -0.999999 0.000979431 
-0.0401511 -1.2001 -3.13666 0.000979431 -0.999999 0.000979431 
-0.0363797 -1.20085 -3.13634 0.000979431 -0.999999 0.000979431 
-0.0326069 -1.20185 -3.13591 0.000979431 -0.999999 0.000979431 
-0.0288427 -1.2026 -3.13559 0.000979431 -0.999999 0.000979431 
-0.0250854 -1.2031 -3.13537 0.000979431 -0.999999 0.000979431 
-0.0213272 -1.20385 -3.13505 0.000979431 -0.999999 0.000979431 
-0.0175748 -1.20435 -3.13484 0.000979431 -0.999999 0.000979431 
-0.0138226 -1.2051 -3.13452 0.000979431 -0.999999 0.000979431 
-0.0100751 -1.2056 -3.1343 0.000979431 -0.999999 0.000979431 
-0.0063289 -1.20635 -3.13398 0.000979431 -0.999999 0.000979431 
-0.00258597 -1.2071 -3.13366 0.000979431 -0.999999 0.000979431 
0.00115385 -1.2076 -3.13345 0.000979431 -0.999999 0.000979431 
0.0048922 -1.20785 -3.13334 0.000979431 -0.999999 0.000979431 
0.00863576 -1.20685 -3.13377 0.000979431 -0.999999 0.000979431 
0.0125012 -1.1896 -3.14116 0.000979431 -0.999999 0.000979431 
0.0162843 -1.1891 -3.14137 0.000979431 -0.999999 0.000979431 
0.044075 -1.1351 -3.1645 0.000979431 -0.999999 0.000979431 
0.0601771 -1.2301 -3.12381 0 0 0 
0.0638576 -1.23035 -3.1237 0 0 0 
0.071173 -1.23185 -3.12306 0.000979431 -0.999999 0.000979431 
0.0746261 -1.2371 -3.12081 0.000979431 -0.999999 0.000979431 
0.0785451 -1.23185 -3.12306 0.000977516 0.999999 0.000977516 
0.083133 -1.21335 -3.13098 0.000979431 -0.999999 0.000979431 
0.086885 -1.21285 -3.1312 0.000979431 -0.999999 0.000979431 
