ply
format ascii 1.0
comment Created by CloudCompare v2.11.1 (Anoia)
comment Created 2022/01/16 16:50
obj_info Generated by CloudCompare!
element vertex 767
property float x
property float y
property float z
property float nx
property float ny
property float nz
end_header
0.273323 0.623558 -1.30487 0.000977516 -0.999999 0.000977516 
0.277592 0.624557 -1.3046 0.000977516 -0.999999 0.000977516 
0.281791 0.625057 -1.30447 0.000977516 -0.999999 0.000977516 
0.28603 0.625807 -1.30426 0.000977516 -0.999999 0.000977516 
0.290233 0.626307 -1.30413 0.000977516 -0.999999 0.000977516 
0.294478 0.627057 -1.30392 0.000977516 -0.999999 0.000977516 
0.298647 0.627307 -1.30385 0.000977516 -0.999999 0.000977516 
0.302818 0.627557 -1.30379 0.000977516 -0.999999 0.000977516 
0.306908 0.627307 -1.30385 0.000977516 -0.999999 0.000977516 
0.311038 0.627307 -1.30385 0.000977516 -0.999999 0.000977516 
0.315126 0.627057 -1.30392 0.000977516 -0.999999 0.000977516 
0.319214 0.626807 -1.30399 0.000977516 -0.999999 0.000977516 
0.323343 0.626807 -1.30399 0.000977516 -0.999999 0.000977516 
0.327515 0.627057 -1.30392 0.000977516 -0.999999 0.000977516 
0.331689 0.627307 -1.30385 0.000977516 -0.999999 0.000977516 
0.336085 0.628807 -1.30345 0.000977516 -0.999999 0.000977516 
0.340534 0.630556 -1.30297 0.000977516 -0.999999 0.000977516 
0.344716 0.630806 -1.3029 0.000977516 -0.999999 0.000977516 
0.348946 0.631306 -1.30277 0.000977516 -0.999999 0.000977516 
0.353225 0.632056 -1.30257 0.000977516 -0.999999 0.000977516 
0.357554 0.633056 -1.30229 0.000977516 -0.999999 0.000977516 
0.36184 0.633806 -1.30209 0.000977516 -0.999999 0.000977516 
0.366129 0.634555 -1.30189 0.000977516 -0.999999 0.000977516 
0.370421 0.635305 -1.30168 0.000977516 -0.999999 0.000977516 
0.374766 0.636305 -1.30141 0.000977516 -0.999999 0.000977516 
0.379216 0.637805 -1.301 0.000977516 -0.999999 0.000977516 
0.383671 0.639305 -1.3006 0.000977516 -0.999999 0.000977516 
0.388032 0.640304 -1.30032 0.000977516 -0.999999 0.000977516 
0.392345 0.641054 -1.30012 0.000977516 -0.999999 0.000977516 
0.396609 0.641554 -1.29998 0.000977516 -0.999999 0.000977516 
0.400876 0.642054 -1.29985 0.000977516 -0.999999 0.000977516 
0.405091 0.642304 -1.29978 0.000977516 -0.999999 0.000977516 
0.409308 0.642554 -1.29971 0.000977516 -0.999999 0.000977516 
0.413471 0.642554 -1.29971 0.000977516 -0.999999 0.000977516 
0.417635 0.642554 -1.29971 0.000977516 -0.999999 0.000977516 
0.421909 0.643054 -1.29958 0.000977516 -0.999999 0.000977516 
0.426129 0.643304 -1.29951 0.000977516 -0.999999 0.000977516 
0.430464 0.644053 -1.29931 0.000977516 -0.999999 0.000977516 
0.434745 0.644553 -1.29917 0.000977516 -0.999999 0.000977516 
0.439027 0.645053 -1.29903 0.000977516 -0.999999 0.000977516 
0.442616 0.642554 -1.29971 0.000977516 -0.999999 0.000977516 
0.446721 0.642304 -1.29978 0.000977516 -0.999999 0.000977516 
0.451179 0.643553 -1.29944 0.000977516 -0.999999 0.000977516 
0.456181 0.647053 -1.29849 0.000977516 -0.999999 0.000977516 
0.460535 0.647803 -1.29829 0.000977516 -0.999999 0.000977516 
0.464953 0.648802 -1.29802 0.000977516 -0.999999 0.000977516 
0.469376 0.649802 -1.29774 0.000977516 -0.999999 0.000977516 
0.473741 0.650552 -1.29754 0.000977516 -0.999999 0.000977516 
0.478047 0.651052 -1.29741 0.000977516 -0.999999 0.000977516 
0.482292 0.651302 -1.29734 0.000977516 -0.999999 0.000977516 
0.486474 0.651302 -1.29734 0.000977516 -0.999999 0.000977516 
0.490593 0.651052 -1.29741 0.000977516 -0.999999 0.000977516 
0.494646 0.650552 -1.29754 0.000977516 -0.999999 0.000977516 
0.498436 0.649052 -1.29795 0.000977516 -0.999999 0.000977516 
0.501825 0.646053 -1.29876 0.000977516 -0.999999 0.000977516 
0.505466 0.644053 -1.29931 0.000977516 -0.999999 0.000977516 
0.509365 0.643054 -1.29958 0.000977516 -0.999999 0.000977516 
0.513328 0.642304 -1.29978 0.000977516 -0.999999 0.000977516 
0.517355 0.641804 -1.29992 0.000977516 -0.999999 0.000977516 
0.521517 0.641804 -1.29992 0.000977516 -0.999999 0.000977516 
0.525748 0.642054 -1.29985 0.000977516 -0.999999 0.000977516 
0.530327 0.643553 -1.29944 0.000977516 -0.999999 0.000977516 
0.535264 0.646303 -1.2987 0.000977516 -0.999999 0.000977516 
0.539577 0.646803 -1.29856 0.000977516 -0.999999 0.000977516 
0.543679 0.646553 -1.29863 0.000977516 -0.999999 0.000977516 
0.547851 0.646553 -1.29863 0.000977516 -0.999999 0.000977516 
0.551951 0.646303 -1.2987 0.000977516 -0.999999 0.000977516 
0.556123 0.646303 -1.2987 0.000977516 -0.999999 0.000977516 
0.560588 0.647303 -1.29842 0.000977516 -0.999999 0.000977516 
0.565796 0.650802 -1.29747 0.000977516 -0.999999 0.000977516 
0.570276 0.651802 -1.2972 0.000977516 -0.999999 0.000977516 
0.574459 0.651802 -1.2972 0.000977516 -0.999999 0.000977516 
0.578568 0.651552 -1.29727 0.000977516 -0.999999 0.000977516 
0.582675 0.651302 -1.29734 0.000977516 -0.999999 0.000977516 
0.58678 0.651052 -1.29741 0.000977516 -0.999999 0.000977516 
0.590731 0.650302 -1.29761 0.000977516 -0.999999 0.000977516 
0.594756 0.649802 -1.29774 0.000977516 -0.999999 0.000977516 
0.598701 0.649052 -1.29795 0.000977516 -0.999999 0.000977516 
0.602721 0.648553 -1.29808 0.000977516 -0.999999 0.000977516 
0.606897 0.648553 -1.29808 0.000977516 -0.999999 0.000977516 
0.611154 0.648802 -1.29802 0.000977516 -0.999999 0.000977516 
0.615411 0.649052 -1.29795 0.000977516 -0.999999 0.000977516 
0.619751 0.649552 -1.29781 0.000977516 -0.999999 0.000977516 
0.624664 0.651802 -1.2972 0.000977516 -0.999999 0.000977516 
0.630243 0.656051 -1.29605 0.000977516 -0.999999 0.000977516 
0.634767 0.657051 -1.29578 0.000977516 -0.999999 0.000977516 
0.639378 0.658301 -1.29544 0.000977516 -0.999999 0.000977516 
0.643744 0.6588 -1.2953 0.000977516 -0.999999 0.000977516 
0.648448 0.6603 -1.29489 0.000977516 -0.999999 0.000977516 
0.654093 0.664549 -1.29374 0.000977516 -0.999999 0.000977516 
0.659927 0.669298 -1.29245 0.000977516 -0.999999 0.000977516 
0.66518 0.672298 -1.29163 0.000977516 -0.999999 0.000977516 
0.669581 0.672798 -1.2915 0.000977516 -0.999999 0.000977516 
0.674246 0.674047 -1.29116 0.000977516 -0.999999 0.000977516 
0.678566 0.674297 -1.29109 0.000977516 -0.999999 0.000977516 
0.682799 0.674297 -1.29109 0.000977516 -0.999999 0.000977516 
0.690489 0.684045 -1.28844 0.000977516 -0.999999 0.000977516 
0.696884 0.690044 -1.28681 0.000977516 -0.999999 0.000977516 
0.701331 0.690544 -1.28668 0.000977516 -0.999999 0.000977516 
0.7056 0.690544 -1.28668 0.000977516 -0.999999 0.000977516 
0.710141 0.691294 -1.28647 0.000977516 -0.999999 0.000977516 
0.713954 0.690044 -1.28681 0.000979431 0.999999 0.000979431 
0.71629 0.684795 -1.28824 0.000979431 0.999999 0.000979431 
0.717864 0.677547 -1.29021 0.000977516 -0.999999 0.000977516 
0.722197 0.677796 -1.29014 0.000977516 -0.999999 0.000977516 
0.726438 0.677796 -1.29014 0.000977516 -0.999999 0.000977516 
0.730866 0.678296 -1.29001 0.000977516 -0.999999 0.000977516 
0.735203 0.678546 -1.28994 0.000977516 -0.999999 0.000977516 
0.739635 0.679046 -1.2898 0.000977516 -0.999999 0.000977516 
0.744261 0.680046 -1.28953 0.000977516 -0.999999 0.000977516 
0.750722 0.685795 -1.28797 0.000977516 -0.999999 0.000977516 
0.755755 0.687794 -1.28743 0.000977516 -0.999999 0.000977516 
0.760212 0.688294 -1.28729 0.000977516 -0.999999 0.000977516 
0.764671 0.688794 -1.28715 0.000977516 -0.999999 0.000977516 
0.769034 0.689044 -1.28709 0.000977516 -0.999999 0.000977516 
0.773399 0.689294 -1.28702 0.000977516 -0.999999 0.000977516 
0.777565 0.689044 -1.28709 0.000977516 -0.999999 0.000977516 
0.78183 0.689044 -1.28709 0.000977516 -0.999999 0.000977516 
0.786095 0.689044 -1.28709 0.000977516 -0.999999 0.000977516 
0.790259 0.688794 -1.28715 0.000977516 -0.999999 0.000977516 
0.794523 0.688794 -1.28715 0.000977516 -0.999999 0.000977516 
0.798788 0.688794 -1.28715 0.000977516 -0.999999 0.000977516 
-0.740311 0.745536 -1.27613 0.000977516 -0.999999 0.000977516 
-0.735465 0.744286 -1.27647 0.000977516 -0.999999 0.000977516 
-0.731261 0.744786 -1.27633 0.000977516 -0.999999 0.000977516 
-0.664546 0.742037 -1.27707 0.000977516 -0.999999 0.000977516 
-0.655884 0.729039 -1.28058 0.000977516 -0.999999 0.000977516 
-0.649488 0.72279 -1.28226 0.000977516 -0.999999 0.000977516 
-0.644255 0.720041 -1.283 0.000977516 -0.999999 0.000977516 
-0.639923 0.720041 -1.283 0.000977516 -0.999999 0.000977516 
-0.63543 0.719541 -1.28313 0.000977516 -0.999999 0.000977516 
-0.630859 0.718791 -1.28334 0.000977516 -0.999999 0.000977516 
-0.625976 0.717042 -1.28381 0.000977516 -0.999999 0.000977516 
-0.619138 0.709043 -1.28596 0.000977516 -0.999999 0.000977516 
-0.613738 0.705544 -1.28691 0.000977516 -0.999999 0.000977516 
-0.609437 0.705544 -1.28691 0.000977516 -0.999999 0.000977516 
-0.605366 0.706294 -1.2867 0.000977516 -0.999999 0.000977516 
-0.601216 0.706794 -1.28657 0.000977516 -0.999999 0.000977516 
-0.596912 0.706794 -1.28657 0.000977516 -0.999999 0.000977516 
-0.592457 0.706294 -1.2867 0.000977516 -0.999999 0.000977516 
-0.588005 0.705794 -1.28684 0.000977516 -0.999999 0.000977516 
-0.583778 0.706044 -1.28677 0.000977516 -0.999999 0.000977516 
-0.57977 0.707044 -1.2865 0.000977516 -0.999999 0.000977516 
-0.575246 0.706294 -1.2867 0.000977516 -0.999999 0.000977516 
-0.570509 0.704794 -1.28711 0.000977516 -0.999999 0.000977516 
-0.566065 0.704294 -1.28724 0.000977516 -0.999999 0.000977516 
-0.561481 0.703294 -1.28751 0.000977516 -0.999999 0.000977516 
-0.556477 0.700795 -1.28818 0.000977516 -0.999999 0.000977516 
-0.551623 0.698795 -1.28872 0.000977516 -0.999999 0.000977516 
-0.547337 0.698795 -1.28872 0.000977516 -0.999999 0.000977516 
-0.543051 0.698795 -1.28872 0.000977516 -0.999999 0.000977516 
-0.538902 0.699295 -1.28859 0.000977516 -0.999999 0.000977516 
-0.534682 0.699545 -1.28852 0.000977516 -0.999999 0.000977516 
-0.530529 0.700045 -1.28839 0.000977516 -0.999999 0.000977516 
-0.526374 0.700545 -1.28825 0.000977516 -0.999999 0.000977516 
-0.52215 0.700795 -1.28818 0.000977516 -0.999999 0.000977516 
-0.517991 0.701295 -1.28805 0.000977516 -0.999999 0.000977516 
-0.513765 0.701545 -1.28798 0.000977516 -0.999999 0.000977516 
-0.509537 0.701795 -1.28791 0.000977516 -0.999999 0.000977516 
-0.505244 0.701795 -1.28791 0.000977516 -0.999999 0.000977516 
-0.500442 0.699795 -1.28845 0.000977516 -0.999999 0.000977516 
-0.495142 0.695796 -1.28953 0.000977516 -0.999999 0.000977516 
-0.490674 0.695046 -1.28973 0.000977516 -0.999999 0.000977516 
-0.486272 0.694546 -1.28987 0.000977516 -0.999999 0.000977516 
-0.481995 0.694546 -1.28987 0.000977516 -0.999999 0.000977516 
-0.477656 0.694296 -1.28994 0.000977516 -0.999999 0.000977516 
-0.47338 0.694296 -1.28994 0.000977516 -0.999999 0.000977516 
-0.469103 0.694296 -1.28994 0.000977516 -0.999999 0.000977516 
-0.464827 0.694296 -1.28994 0.000977516 -0.999999 0.000977516 
-0.460609 0.694546 -1.28987 0.000977516 -0.999999 0.000977516 
-0.45639 0.694796 -1.2898 0.000977516 -0.999999 0.000977516 
-0.452228 0.695296 -1.28967 0.000977516 -0.999999 0.000977516 
-0.448006 0.695546 -1.2896 0.000977516 -0.999999 0.000977516 
-0.443784 0.695796 -1.28953 0.000977516 -0.999999 0.000977516 
-0.43956 0.696046 -1.28946 0.000977516 -0.999999 0.000977516 
-0.435224 0.695796 -1.28953 0.000977516 -0.999999 0.000977516 
-0.430944 0.695796 -1.28953 0.000977516 -0.999999 0.000977516 
-0.426719 0.696046 -1.28946 0.000977516 -0.999999 0.000977516 
-0.422384 0.695796 -1.28953 0.000977516 -0.999999 0.000977516 
-0.418105 0.695796 -1.28953 0.000977516 -0.999999 0.000977516 
-0.413772 0.695546 -1.2896 0.000977516 -0.999999 0.000977516 
-0.406984 0.683548 -1.29283 0.000977516 -0.999999 0.000977516 
-0.402679 0.683299 -1.2929 0.000977516 -0.999999 0.000977516 
-0.398324 0.682799 -1.29303 0.000977516 -0.999999 0.000977516 
-0.39387 0.681799 -1.2933 0.000977516 -0.999999 0.000977516 
-0.38942 0.680799 -1.29357 0.000977516 -0.999999 0.000977516 
-0.385025 0.680049 -1.29377 0.000977516 -0.999999 0.000977516 
-0.380681 0.679549 -1.29391 0.000977516 -0.999999 0.000977516 
-0.37634 0.679049 -1.29404 0.000977516 -0.999999 0.000977516 
-0.372049 0.6788 -1.29411 0.000977516 -0.999999 0.000977516 
-0.367711 0.6783 -1.29424 0.000977516 -0.999999 0.000977516 
-0.362861 0.67505 -1.29512 0.000977516 -0.999999 0.000977516 
-0.358442 0.674051 -1.29539 0.000977516 -0.999999 0.000977516 
-0.354484 0.67555 -1.29499 0.000977516 -0.999999 0.000977516 
-0.350835 0.6788 -1.29411 0.000977516 -0.999999 0.000977516 
-0.346637 0.679049 -1.29404 0.000977516 -0.999999 0.000977516 
-0.342262 0.6783 -1.29424 0.000977516 -0.999999 0.000977516 
-0.337715 0.67655 -1.29472 0.000977516 -0.999999 0.000977516 
-0.333177 0.6748 -1.29519 0.000977516 -0.999999 0.000977516 
-0.328518 0.672301 -1.29586 0.000977516 -0.999999 0.000977516 
-0.323661 0.668552 -1.29687 0.000977516 -0.999999 0.000977516 
-0.319317 0.667802 -1.29707 0.000977516 -0.999999 0.000977516 
-0.315384 0.669551 -1.2966 0.000977516 -0.999999 0.000977516 
-0.31088 0.667802 -1.29707 0.000977516 -0.999999 0.000977516 
-0.306105 0.664302 -1.29802 0.000977516 -0.999999 0.000977516 
-0.301737 0.663303 -1.29829 0.000977516 -0.999999 0.000977516 
-0.297451 0.662803 -1.29842 0.000977516 -0.999999 0.000977516 
-0.293206 0.662553 -1.29849 0.000977516 -0.999999 0.000977516 
-0.288923 0.662053 -1.29862 0.000977516 -0.999999 0.000977516 
-0.284643 0.661553 -1.29876 0.000977516 -0.999999 0.000977516 
-0.280365 0.661053 -1.29889 0.000977516 -0.999999 0.000977516 
-0.27609 0.660553 -1.29903 0.000977516 -0.999999 0.000977516 
-0.271746 0.659554 -1.2993 0.000977516 -0.999999 0.000977516 
-0.267371 0.658304 -1.29963 0.000977516 -0.999999 0.000977516 
-0.262831 0.655804 -1.30031 0.000977516 -0.999999 0.000977516 
-0.258301 0.653305 -1.30098 0.000977516 -0.999999 0.000977516 
-0.253915 0.651805 -1.30138 0.000977516 -0.999999 0.000977516 
-0.249536 0.650305 -1.30179 0.000977516 -0.999999 0.000977516 
-0.245227 0.649306 -1.30206 0.000977516 -0.999999 0.000977516 
-0.240891 0.648056 -1.30239 0.000977516 -0.999999 0.000977516 
-0.236561 0.646806 -1.30273 0.000977516 -0.999999 0.000977516 
-0.232236 0.645556 -1.30307 0.000977516 -0.999999 0.000977516 
-0.227887 0.644057 -1.30347 0.000977516 -0.999999 0.000977516 
-0.223515 0.642307 -1.30394 0.000977516 -0.999999 0.000977516 
-0.21915 0.640557 -1.30441 0.000977516 -0.999999 0.000977516 
-0.214822 0.639058 -1.30482 0.000977516 -0.999999 0.000977516 
-0.2105 0.637558 -1.30522 0.000977516 -0.999999 0.000977516 
-0.205614 0.630809 -1.30704 0.000977516 -0.999999 0.000977516 
-0.201024 0.62656 -1.30819 0.000977516 -0.999999 0.000977516 
-0.196818 0.62581 -1.30839 0.000977516 -0.999999 0.000977516 
-0.192257 0.621561 -1.30953 0.000977516 -0.999999 0.000977516 
-0.187915 0.619312 -1.31014 0.000977516 -0.999999 0.000977516 
-0.182606 0.607064 -1.31344 0.000977516 -0.999999 0.000977516 
-0.177446 0.595816 -1.31647 0.000977516 -0.999999 0.000977516 
-0.173198 0.593817 -1.31701 0.000977516 -0.999999 0.000977516 
-0.16905 0.592817 -1.31728 0.000977516 -0.999999 0.000977516 
-0.164906 0.591817 -1.31755 0.000977516 -0.999999 0.000977516 
-0.160767 0.590818 -1.31782 0.000977516 -0.999999 0.000977516 
-0.156674 0.590318 -1.31795 0.000977516 -0.999999 0.000977516 
-0.152563 0.589568 -1.31815 0.000977516 -0.999999 0.000977516 
-0.147614 0.57832 -1.32118 0.000977516 -0.999999 0.000977516 
-0.143571 0.57807 -1.32125 0.000977516 -0.999999 0.000977516 
-0.138639 0.566073 -1.32448 0.000977516 -0.999999 0.000977516 
-0.134495 0.564073 -1.32502 0.000977516 -0.999999 0.000977516 
-0.130414 0.562823 -1.32536 0.000977516 -0.999999 0.000977516 
-0.125732 0.552825 -1.32805 0.000977516 -0.999999 0.000977516 
-0.121564 0.549826 -1.32886 0.000977516 -0.999999 0.000977516 
-0.117554 0.549076 -1.32906 0.000977516 -0.999999 0.000977516 
-0.113532 0.548076 -1.32933 0.000977516 -0.999999 0.000977516 
-0.109485 0.546577 -1.32973 0.000977516 -0.999999 0.000977516 
-0.105385 0.544077 -1.33041 0.000977516 -0.999999 0.000977516 
-0.101254 0.540828 -1.33128 0.000977516 -0.999999 0.000977516 
-0.0971513 0.537828 -1.33209 0.000977516 -0.999999 0.000977516 
-0.093152 0.536579 -1.33243 0.000977516 -0.999999 0.000977516 
-0.0891705 0.535579 -1.3327 0.000977516 -0.999999 0.000977516 
-0.0852171 0.535079 -1.33283 0.000977516 -0.999999 0.000977516 
-0.0812659 0.534579 -1.33297 0.000977516 -0.999999 0.000977516 
-0.0773169 0.534079 -1.3331 0.000977516 -0.999999 0.000977516 
-0.0733496 0.53308 -1.33337 0.000977516 -0.999999 0.000977516 
-0.0693384 0.53083 -1.33398 0.000977516 -0.999999 0.000977516 
-0.0653735 0.52958 -1.33431 0.000977516 -0.999999 0.000977516 
-0.0614569 0.52958 -1.33431 0.000977516 -0.999999 0.000977516 
-0.0575563 0.53008 -1.33418 0.000977516 -0.999999 0.000977516 
-0.0536461 0.53033 -1.33411 0.000977516 -0.999999 0.000977516 
-0.0497348 0.53058 -1.33404 0.000977516 -0.999999 0.000977516 
-0.0458097 0.53033 -1.33411 0.000977516 -0.999999 0.000977516 
-0.0418739 0.52958 -1.33431 0.000977516 -0.999999 0.000977516 
-0.0379414 0.52883 -1.33452 0.000977516 -0.999999 0.000977516 
-0.0340122 0.528081 -1.33472 0.000977516 -0.999999 0.000977516 
-0.0300863 0.527331 -1.33492 0.000977516 -0.999999 0.000977516 
-0.026171 0.527081 -1.33499 0.000977516 -0.999999 0.000977516 
-0.0222536 0.526581 -1.33512 0.000977516 -0.999999 0.000977516 
-0.0183385 0.526081 -1.33526 0.000977516 -0.999999 0.000977516 
-0.0144194 0.524831 -1.33559 0.000977516 -0.999999 0.000977516 
-0.0105059 0.523582 -1.33593 0.000977516 -0.999999 0.000977516 
-0.00659868 0.522582 -1.3362 0.000977516 -0.999999 0.000977516 
-0.00269663 0.522082 -1.33633 0.000977516 -0.999999 0.000977516 
0.00120307 0.521332 -1.33654 0.000977516 -0.999999 0.000977516 
0.00510021 0.520832 -1.33667 0.000977516 -0.999999 0.000977516 
0.00899643 0.520582 -1.33674 0.000977516 -0.999999 0.000977516 
0.0128934 0.520582 -1.33674 0.000977516 -0.999999 0.000977516 
0.0167926 0.520832 -1.33667 0.000977516 -0.999999 0.000977516 
0.020693 0.521082 -1.3366 0.000977516 -0.999999 0.000977516 
0.0246014 0.521832 -1.3364 0.000977516 -0.999999 0.000977516 
0.028517 0.522832 -1.33613 0.000977516 -0.999999 0.000977516 
0.0324325 0.523582 -1.33593 0.000977516 -0.999999 0.000977516 
0.036341 0.523831 -1.33586 0.000977516 -0.999999 0.000977516 
0.0402451 0.523831 -1.33586 0.000977516 -0.999999 0.000977516 
0.0441491 0.523831 -1.33586 0.000977516 -0.999999 0.000977516 
0.0480464 0.523582 -1.33593 0.000977516 -0.999999 0.000977516 
0.0519499 0.523582 -1.33593 0.000977516 -0.999999 0.000977516 
0.0558534 0.523582 -1.33593 0.000977516 -0.999999 0.000977516 
0.0597569 0.523582 -1.33593 0.000977516 -0.999999 0.000977516 
0.0636604 0.523582 -1.33593 0.000977516 -0.999999 0.000977516 
0.0675544 0.523332 -1.336 0.000977516 -0.999999 0.000977516 
0.0714373 0.522832 -1.33613 0.000977516 -0.999999 0.000977516 
0.0753181 0.522332 -1.33627 0.000977516 -0.999999 0.000977516 
0.0791966 0.521832 -1.3364 0.000977516 -0.999999 0.000977516 
0.083073 0.521332 -1.33654 0.000977516 -0.999999 0.000977516 
0.0869716 0.521332 -1.33654 0.000977516 -0.999999 0.000977516 
0.0908829 0.521582 -1.33647 0.000977516 -0.999999 0.000977516 
0.0947953 0.521832 -1.3364 0.000977516 -0.999999 0.000977516 
0.0987917 0.523582 -1.33593 0.000977516 -0.999999 0.000977516 
0.103054 0.52983 -1.33425 0.000977516 -0.999999 0.000977516 
0.107016 0.53058 -1.33404 0.000977516 -0.999999 0.000977516 
0.110982 0.53133 -1.33384 0.000977516 -0.999999 0.000977516 
0.11495 0.53208 -1.33364 0.000977516 -0.999999 0.000977516 
0.118922 0.53283 -1.33344 0.000977516 -0.999999 0.000977516 
0.12288 0.533329 -1.3333 0.000977516 -0.999999 0.000977516 
0.126857 0.534079 -1.3331 0.000977516 -0.999999 0.000977516 
0.130838 0.534829 -1.3329 0.000977516 -0.999999 0.000977516 
0.134841 0.535829 -1.33263 0.000977516 -0.999999 0.000977516 
0.139022 0.539078 -1.33176 0.000977516 -0.999999 0.000977516 
0.143575 0.546827 -1.32967 0.000977516 -0.999999 0.000977516 
0.147672 0.548576 -1.3292 0.000977516 -0.999999 0.000977516 
0.151985 0.552825 -1.32805 0.000977516 -0.999999 0.000977516 
0.156468 0.558824 -1.32644 0.000977516 -0.999999 0.000977516 
0.160537 0.559824 -1.32617 0.000977516 -0.999999 0.000977516 
0.16461 0.560824 -1.3259 0.000977516 -0.999999 0.000977516 
0.16871 0.562074 -1.32556 0.000977516 -0.999999 0.000977516 
0.172816 0.563323 -1.32522 0.000977516 -0.999999 0.000977516 
0.176927 0.564573 -1.32489 0.000977516 -0.999999 0.000977516 
0.180995 0.565323 -1.32468 0.000977516 -0.999999 0.000977516 
0.185116 0.566573 -1.32435 0.000977516 -0.999999 0.000977516 
0.190741 0.582319 -1.32011 0.000977516 -0.999999 0.000977516 
0.194931 0.583819 -1.3197 0.000977516 -0.999999 0.000977516 
0.199074 0.584819 -1.31943 0.000977516 -0.999999 0.000977516 
0.203881 0.591817 -1.31755 0.000977516 -0.999999 0.000977516 
0.208354 0.595567 -1.31654 0.000977516 -0.999999 0.000977516 
0.212758 0.598566 -1.31573 0.000977516 -0.999999 0.000977516 
0.217175 0.601565 -1.31492 0.000977516 -0.999999 0.000977516 
0.221753 0.605814 -1.31377 0.000977516 -0.999999 0.000977516 
0.225957 0.606814 -1.31351 0.000977516 -0.999999 0.000977516 
0.230165 0.607814 -1.31324 0.000977516 -0.999999 0.000977516 
0.234378 0.608814 -1.31297 0.000977516 -0.999999 0.000977516 
0.238595 0.609814 -1.3127 0.000977516 -0.999999 0.000977516 
0.242849 0.611063 -1.31236 0.000977516 -0.999999 0.000977516 
0.247142 0.612563 -1.31196 0.000977516 -0.999999 0.000977516 
0.25144 0.614063 -1.31155 0.000977516 -0.999999 0.000977516 
0.255746 0.615562 -1.31115 0.000977516 -0.999999 0.000977516 
0.260265 0.618562 -1.31034 0.000977516 -0.999999 0.000977516 
0.264833 0.621811 -1.30947 0.000977516 -0.999999 0.000977516 
0.269308 0.624311 -1.30879 0.000977516 -0.999999 0.000977516 
0.273576 0.625311 -1.30852 0.000977516 -0.999999 0.000977516 
0.277813 0.62606 -1.30832 0.000977516 -0.999999 0.000977516 
0.282015 0.62656 -1.30819 0.000977516 -0.999999 0.000977516 
0.286219 0.62706 -1.30805 0.000977516 -0.999999 0.000977516 
0.290502 0.62806 -1.30778 0.000977516 -0.999999 0.000977516 
0.294751 0.62881 -1.30758 0.000977516 -0.999999 0.000977516 
0.298924 0.62906 -1.30751 0.000977516 -0.999999 0.000977516 
0.303058 0.62906 -1.30751 0.000977516 -0.999999 0.000977516 
0.307151 0.62881 -1.30758 0.000977516 -0.999999 0.000977516 
0.311244 0.62856 -1.30765 0.000977516 -0.999999 0.000977516 
0.315335 0.62831 -1.30771 0.000977516 -0.999999 0.000977516 
0.319383 0.62781 -1.30785 0.000977516 -0.999999 0.000977516 
0.323471 0.62756 -1.30792 0.000977516 -0.999999 0.000977516 
0.327645 0.62781 -1.30785 0.000977516 -0.999999 0.000977516 
0.333443 0.637308 -1.30529 0.000977516 -0.999999 0.000977516 
0.33724 0.635308 -1.30583 0.000977516 -0.999999 0.000977516 
0.341163 0.634059 -1.30616 0.000977516 -0.999999 0.000977516 
0.345035 0.632559 -1.30657 0.000977516 -0.999999 0.000977516 
0.349269 0.633059 -1.30643 0.000977516 -0.999999 0.000977516 
0.353505 0.633559 -1.3063 0.000977516 -0.999999 0.000977516 
0.357743 0.634059 -1.30616 0.000977516 -0.999999 0.000977516 
0.361983 0.634559 -1.30603 0.000977516 -0.999999 0.000977516 
0.366274 0.635308 -1.30583 0.000977516 -0.999999 0.000977516 
0.370617 0.636308 -1.30556 0.000977516 -0.999999 0.000977516 
0.375062 0.637808 -1.30515 0.000977516 -0.999999 0.000977516 
0.379515 0.639308 -1.30475 0.000977516 -0.999999 0.000977516 
0.383873 0.640307 -1.30448 0.000977516 -0.999999 0.000977516 
0.388184 0.641057 -1.30428 0.000977516 -0.999999 0.000977516 
0.392499 0.641807 -1.30408 0.000977516 -0.999999 0.000977516 
0.396765 0.642307 -1.30394 0.000977516 -0.999999 0.000977516 
0.401033 0.642807 -1.30381 0.000977516 -0.999999 0.000977516 
0.405304 0.643307 -1.30367 0.000977516 -0.999999 0.000977516 
0.409523 0.643557 -1.30361 0.000977516 -0.999999 0.000977516 
0.413742 0.643807 -1.30354 0.000977516 -0.999999 0.000977516 
0.417963 0.644057 -1.30347 0.000977516 -0.999999 0.000977516 
0.422241 0.644557 -1.30334 0.000977516 -0.999999 0.000977516 
0.426521 0.645056 -1.3032 0.000977516 -0.999999 0.000977516 
0.430802 0.645556 -1.30307 0.000977516 -0.999999 0.000977516 
0.435086 0.646056 -1.30293 0.000977516 -0.999999 0.000977516 
0.439315 0.646306 -1.30287 0.000977516 -0.999999 0.000977516 
0.443545 0.646556 -1.3028 0.000977516 -0.999999 0.000977516 
0.447658 0.646306 -1.30287 0.000977516 -0.999999 0.000977516 
0.451948 0.646806 -1.30273 0.000977516 -0.999999 0.000977516 
0.4563 0.647556 -1.30253 0.000977516 -0.999999 0.000977516 
0.460716 0.648556 -1.30226 0.000977516 -0.999999 0.000977516 
0.465136 0.649556 -1.30199 0.000977516 -0.999999 0.000977516 
0.469621 0.650805 -1.30165 0.000977516 -0.999999 0.000977516 
0.47405 0.651805 -1.30138 0.000977516 -0.999999 0.000977516 
0.478359 0.652305 -1.30125 0.000977516 -0.999999 0.000977516 
0.482607 0.652555 -1.30118 0.000977516 -0.999999 0.000977516 
0.486792 0.652555 -1.30118 0.000977516 -0.999999 0.000977516 
0.490913 0.652305 -1.30125 0.000977516 -0.999999 0.000977516 
0.495098 0.652305 -1.30125 0.000977516 -0.999999 0.000977516 
0.499218 0.652055 -1.30132 0.000977516 -0.999999 0.000977516 
0.502416 0.648306 -1.30233 0.000977516 -0.999999 0.000977516 
0.505665 0.644807 -1.30327 0.000977516 -0.999999 0.000977516 
0.509499 0.643557 -1.30361 0.000977516 -0.999999 0.000977516 
0.513463 0.642807 -1.30381 0.000977516 -0.999999 0.000977516 
0.517491 0.642307 -1.30394 0.000977516 -0.999999 0.000977516 
0.521654 0.642307 -1.30394 0.000977516 -0.999999 0.000977516 
0.527611 0.648806 -1.30219 0.000977516 -0.999999 0.000977516 
0.532205 0.650305 -1.30179 0.000977516 -0.999999 0.000977516 
0.536245 0.649805 -1.30192 0.000977516 -0.999999 0.000977516 
0.540283 0.649306 -1.30206 0.000977516 -0.999999 0.000977516 
0.544319 0.648806 -1.30219 0.000977516 -0.999999 0.000977516 
0.548425 0.648556 -1.30226 0.000977516 -0.999999 0.000977516 
0.552529 0.648306 -1.30233 0.000977516 -0.999999 0.000977516 
0.556924 0.649056 -1.30212 0.000977516 -0.999999 0.000977516 
0.561761 0.651305 -1.30152 0.000977516 -0.999999 0.000977516 
0.566314 0.652555 -1.30118 0.000977516 -0.999999 0.000977516 
0.570574 0.652805 -1.30111 0.000977516 -0.999999 0.000977516 
0.574759 0.652805 -1.30111 0.000977516 -0.999999 0.000977516 
0.578794 0.652305 -1.30125 0.000977516 -0.999999 0.000977516 
0.582903 0.652055 -1.30132 0.000977516 -0.999999 0.000977516 
0.58701 0.651805 -1.30138 0.000977516 -0.999999 0.000977516 
0.59104 0.651305 -1.30152 0.000977516 -0.999999 0.000977516 
0.5953 0.651555 -1.30145 0.000977516 -0.999999 0.000977516 
0.602067 0.659803 -1.29923 0.000977516 -0.999999 0.000977516 
0.607293 0.663053 -1.29835 0.000977516 -0.999999 0.000977516 
0.612374 0.665802 -1.29761 0.000977516 -0.999999 0.000977516 
0.617148 0.667552 -1.29714 0.000977516 -0.999999 0.000977516 
0.621688 0.668552 -1.29687 0.000977516 -0.999999 0.000977516 
0.626151 0.669302 -1.29667 0.000977516 -0.999999 0.000977516 
0.630536 0.669801 -1.29654 0.000977516 -0.999999 0.000977516 
0.634841 0.670051 -1.29647 0.000977516 -0.999999 0.000977516 
0.639148 0.670301 -1.2964 0.000977516 -0.999999 0.000977516 
0.643455 0.670551 -1.29633 0.000977516 -0.999999 0.000977516 
0.64768 0.670551 -1.29633 0.000977516 -0.999999 0.000977516 
0.651989 0.670801 -1.29627 0.000977516 -0.999999 0.000977516 
0.656383 0.671301 -1.29613 0.000977516 -0.999999 0.000977516 
0.661037 0.672551 -1.29579 0.000977516 -0.999999 0.000977516 
0.668187 0.681049 -1.2935 0.000977516 -0.999999 0.000977516 
0.674251 0.686298 -1.29209 0.000977516 -0.999999 0.000977516 
0.679554 0.689297 -1.29128 0.000977516 -0.999999 0.000977516 
0.686184 0.696046 -1.28946 0.000977516 -0.999999 0.000977516 
0.721656 0.687798 -1.29169 0.000979431 0.999999 0.000979431 
0.725546 0.686798 -1.29196 0.000977516 -0.999999 0.000977516 
0.730087 0.687548 -1.29175 0.000977516 -0.999999 0.000977516 
0.733972 0.686548 -1.29202 0.000977516 -0.999999 0.000977516 
0.737664 0.685048 -1.29243 0.000977516 -0.999999 0.000977516 
0.741635 0.684298 -1.29263 0.000977516 -0.999999 0.000977516 
0.746847 0.686798 -1.29196 0.000977516 -0.999999 0.000977516 
0.751492 0.687798 -1.29169 0.000977516 -0.999999 0.000977516 
0.755948 0.688298 -1.29155 0.000977516 -0.999999 0.000977516 
0.760407 0.688797 -1.29142 0.000977516 -0.999999 0.000977516 
0.764867 0.689297 -1.29128 0.000977516 -0.999999 0.000977516 
0.769231 0.689547 -1.29122 0.000977516 -0.999999 0.000977516 
0.773498 0.689547 -1.29122 0.000977516 -0.999999 0.000977516 
0.777764 0.689547 -1.29122 0.000977516 -0.999999 0.000977516 
0.78193 0.689297 -1.29128 0.000977516 -0.999999 0.000977516 
0.786095 0.689047 -1.29135 0.000977516 -0.999999 0.000977516 
0.790259 0.688797 -1.29142 0.000977516 -0.999999 0.000977516 
0.794523 0.688797 -1.29142 0.000977516 -0.999999 0.000977516 
0.798685 0.688548 -1.29148 0.000977516 -0.999999 0.000977516 
0.80727 0.699045 -1.28866 0.000977516 -0.999999 0.000977516 
0.811763 0.699545 -1.28852 0.000977516 -0.999999 0.000977516 
-0.740403 0.745789 -1.28045 0.000977516 -0.999999 0.000977516 
-0.66 0.74154 -1.28159 0.000977516 -0.999999 0.000977516 
-0.654803 0.73904 -1.28225 0.000977516 -0.999999 0.000977516 
-0.649454 0.736041 -1.28305 0.000977516 -0.999999 0.000977516 
-0.645167 0.736291 -1.28299 0.000977516 -0.999999 0.000977516 
-0.640237 0.734541 -1.28346 0.000977516 -0.999999 0.000977516 
-0.633326 0.726543 -1.28559 0.000977516 -0.999999 0.000977516 
-0.628189 0.724043 -1.28626 0.000977516 -0.999999 0.000977516 
-0.621649 0.717045 -1.28813 0.000977516 -0.999999 0.000977516 
-0.617401 0.717295 -1.28806 0.000977516 -0.999999 0.000977516 
-0.613306 0.718045 -1.28786 0.000977516 -0.999999 0.000977516 
-0.609132 0.718545 -1.28773 0.000977516 -0.999999 0.000977516 
-0.604878 0.718795 -1.28766 0.000977516 -0.999999 0.000977516 
-0.600473 0.718545 -1.28773 0.000977516 -0.999999 0.000977516 
-0.595993 0.718045 -1.28786 0.000977516 -0.999999 0.000977516 
-0.591291 0.716795 -1.2882 0.000977516 -0.999999 0.000977516 
-0.58652 0.715295 -1.2886 0.000977516 -0.999999 0.000977516 
-0.581683 0.713546 -1.28907 0.000977516 -0.999999 0.000977516 
-0.576488 0.710546 -1.28987 0.000977516 -0.999999 0.000977516 
-0.571813 0.709297 -1.2902 0.000977516 -0.999999 0.000977516 
-0.567072 0.707797 -1.2906 0.000977516 -0.999999 0.000977516 
-0.562624 0.707297 -1.29074 0.000977516 -0.999999 0.000977516 
-0.55846 0.707797 -1.2906 0.000977516 -0.999999 0.000977516 
-0.553803 0.706547 -1.29094 0.000977516 -0.999999 0.000977516 
-0.547825 0.700548 -1.29254 0.000977516 -0.999999 0.000977516 
-0.543397 0.700048 -1.29267 0.000977516 -0.999999 0.000977516 
-0.539176 0.700298 -1.29261 0.000977516 -0.999999 0.000977516 
-0.535023 0.700798 -1.29247 0.000977516 -0.999999 0.000977516 
-0.530867 0.701298 -1.29234 0.000977516 -0.999999 0.000977516 
-0.526709 0.701798 -1.29221 0.000977516 -0.999999 0.000977516 
-0.522483 0.702048 -1.29214 0.000977516 -0.999999 0.000977516 
-0.518321 0.702548 -1.29201 0.000977516 -0.999999 0.000977516 
-0.514092 0.702798 -1.29194 0.000977516 -0.999999 0.000977516 
-0.509862 0.703048 -1.29187 0.000977516 -0.999999 0.000977516 
-0.505566 0.703048 -1.29187 0.000977516 -0.999999 0.000977516 
-0.501206 0.702798 -1.29194 0.000977516 -0.999999 0.000977516 
-0.496722 0.702048 -1.29214 0.000977516 -0.999999 0.000977516 
-0.491739 0.699299 -1.29287 0.000977516 -0.999999 0.000977516 
-0.486706 0.696299 -1.29368 0.000977516 -0.999999 0.000977516 
-0.482302 0.695799 -1.29381 0.000977516 -0.999999 0.000977516 
-0.4779 0.695299 -1.29394 0.000977516 -0.999999 0.000977516 
-0.473561 0.695049 -1.29401 0.000977516 -0.999999 0.000977516 
-0.469283 0.695049 -1.29401 0.000977516 -0.999999 0.000977516 
-0.464945 0.694799 -1.29408 0.000977516 -0.999999 0.000977516 
-0.460727 0.695049 -1.29401 0.000977516 -0.999999 0.000977516 
-0.456507 0.695299 -1.29394 0.000977516 -0.999999 0.000977516 
-0.452343 0.695799 -1.29381 0.000977516 -0.999999 0.000977516 
-0.448121 0.696049 -1.29374 0.000977516 -0.999999 0.000977516 
-0.443954 0.696549 -1.29361 0.000977516 -0.999999 0.000977516 
-0.439672 0.696549 -1.29361 0.000977516 -0.999999 0.000977516 
-0.435391 0.696549 -1.29361 0.000977516 -0.999999 0.000977516 
-0.431109 0.696549 -1.29361 0.000977516 -0.999999 0.000977516 
-0.426828 0.696549 -1.29361 0.000977516 -0.999999 0.000977516 
-0.422546 0.696549 -1.29361 0.000977516 -0.999999 0.000977516 
-0.418265 0.696549 -1.29361 0.000977516 -0.999999 0.000977516 
-0.414036 0.696799 -1.29354 0.000977516 -0.999999 0.000977516 
-0.409336 0.694799 -1.29408 0.000977516 -0.999999 0.000977516 
-0.402989 0.684801 -1.29675 0.000977516 -0.999999 0.000977516 
-0.39858 0.684052 -1.29695 0.000977516 -0.999999 0.000977516 
-0.394174 0.683302 -1.29715 0.000977516 -0.999999 0.000977516 
-0.389671 0.682052 -1.29748 0.000977516 -0.999999 0.000977516 
-0.385272 0.681302 -1.29768 0.000977516 -0.999999 0.000977516 
-0.380975 0.681052 -1.29775 0.000977516 -0.999999 0.000977516 
-0.376679 0.680802 -1.29782 0.000977516 -0.999999 0.000977516 
-0.37248 0.681052 -1.29775 0.000977516 -0.999999 0.000977516 
-0.368043 0.680053 -1.29802 0.000977516 -0.999999 0.000977516 
-0.363844 0.680302 -1.29795 0.000977516 -0.999999 0.000977516 
-0.35983 0.681552 -1.29762 0.000977516 -0.999999 0.000977516 
-0.356907 0.688801 -1.29568 0.000977516 -0.999999 0.000977516 
-0.352597 0.688551 -1.29575 0.000977516 -0.999999 0.000977516 
-0.348154 0.687551 -1.29601 0.000977516 -0.999999 0.000977516 
-0.342614 0.680302 -1.29795 0.000977516 -0.999999 0.000977516 
-0.338194 0.679303 -1.29822 0.000977516 -0.999999 0.000977516 
-0.333821 0.678553 -1.29842 0.000977516 -0.999999 0.000977516 
-0.32941 0.677553 -1.29869 0.000977516 -0.999999 0.000977516 
-0.32496 0.676303 -1.29902 0.000977516 -0.999999 0.000977516 
-0.320516 0.675053 -1.29935 0.000977516 -0.999999 0.000977516 
-0.316159 0.674304 -1.29955 0.000977516 -0.999999 0.000977516 
-0.311604 0.672304 -1.30009 0.000977516 -0.999999 0.000977516 
-0.30678 0.668555 -1.30109 0.000977516 -0.999999 0.000977516 
-0.301972 0.664806 -1.30209 0.000977516 -0.999999 0.000977516 
-0.297567 0.663556 -1.30243 0.000977516 -0.999999 0.000977516 
-0.293282 0.663056 -1.30256 0.000977516 -0.999999 0.000977516 
-0.289036 0.662806 -1.30263 0.000977516 -0.999999 0.000977516 
-0.284754 0.662306 -1.30276 0.000977516 -0.999999 0.000977516 
-0.280475 0.661806 -1.30289 0.000977516 -0.999999 0.000977516 
-0.276197 0.661306 -1.30303 0.000977516 -0.999999 0.000977516 
-0.271887 0.660556 -1.30323 0.000977516 -0.999999 0.000977516 
-0.26758 0.659807 -1.30343 0.000977516 -0.999999 0.000977516 
-0.263173 0.658307 -1.30383 0.000977516 -0.999999 0.000977516 
-0.258739 0.656557 -1.3043 0.000977516 -0.999999 0.000977516 
-0.254147 0.653558 -1.3051 0.000977516 -0.999999 0.000977516 
-0.249699 0.651558 -1.30563 0.000977516 -0.999999 0.000977516 
-0.245291 0.649809 -1.3061 0.000977516 -0.999999 0.000977516 
-0.240954 0.648559 -1.30643 0.000977516 -0.999999 0.000977516 
-0.236623 0.647309 -1.30677 0.000977516 -0.999999 0.000977516 
-0.232267 0.64581 -1.30717 0.000977516 -0.999999 0.000977516 
-0.227917 0.64431 -1.30757 0.000977516 -0.999999 0.000977516 
-0.223544 0.64256 -1.30804 0.000977516 -0.999999 0.000977516 
-0.219208 0.64106 -1.30844 0.000977516 -0.999999 0.000977516 
-0.214907 0.639811 -1.30877 0.000977516 -0.999999 0.000977516 
-0.210583 0.638311 -1.30917 0.000977516 -0.999999 0.000977516 
-0.206022 0.634562 -1.31017 0.000977516 -0.999999 0.000977516 
-0.201051 0.626813 -1.31225 0.000977516 -0.999999 0.000977516 
-0.196766 0.625314 -1.31265 0.000977516 -0.999999 0.000977516 
-0.192028 0.619315 -1.31425 0.000977516 -0.999999 0.000977516 
-0.18784 0.618565 -1.31445 0.000977516 -0.999999 0.000977516 
-0.182679 0.607817 -1.31732 0.000977516 -0.999999 0.000977516 
-0.177422 0.59557 -1.3206 0.000977516 -0.999999 0.000977516 
-0.173175 0.59357 -1.32113 0.000977516 -0.999999 0.000977516 
-0.169027 0.59257 -1.3214 0.000977516 -0.999999 0.000977516 
-0.164884 0.591571 -1.32166 0.000977516 -0.999999 0.000977516 
-0.160745 0.590571 -1.32193 0.000977516 -0.999999 0.000977516 
-0.156632 0.589821 -1.32213 0.000977516 -0.999999 0.000977516 
-0.152502 0.588821 -1.3224 0.000977516 -0.999999 0.000977516 
-0.147594 0.578073 -1.32527 0.000977516 -0.999999 0.000977516 
-0.143532 0.577573 -1.3254 0.000977516 -0.999999 0.000977516 
-0.138544 0.564826 -1.32881 0.000977516 -0.999999 0.000977516 
-0.134422 0.563076 -1.32928 0.000977516 -0.999999 0.000977516 
-0.13011 0.558577 -1.33048 0.000977516 -0.999999 0.000977516 
-0.125559 0.550329 -1.33269 0.000977516 -0.999999 0.000977516 
-0.121547 0.549579 -1.33289 0.000977516 -0.999999 0.000977516 
-0.117506 0.548329 -1.33322 0.000977516 -0.999999 0.000977516 
-0.113485 0.54733 -1.33349 0.000977516 -0.999999 0.000977516 
-0.109394 0.54508 -1.33409 0.000977516 -0.999999 0.000977516 
-0.105239 0.541581 -1.33502 0.000977516 -0.999999 0.000977516 
-0.101156 0.539081 -1.33569 0.000977516 -0.999999 0.000977516 
-0.0971109 0.537082 -1.33623 0.000977516 -0.999999 0.000977516 
-0.0931002 0.535582 -1.33663 0.000977516 -0.999999 0.000977516 
-0.089121 0.534582 -1.33689 0.000977516 -0.999999 0.000977516 
-0.0851579 0.533832 -1.33709 0.000977516 -0.999999 0.000977516 
-0.0811981 0.533083 -1.33729 0.000977516 -0.999999 0.000977516 
-0.0772308 0.532083 -1.33756 0.000977516 -0.999999 0.000977516 
-0.0732373 0.530333 -1.33803 0.000977516 -0.999999 0.000977516 
-0.0692611 0.528833 -1.33843 0.000977516 -0.999999 0.000977516 
-0.0653188 0.528084 -1.33863 0.000977516 -0.999999 0.000977516 
-0.0613712 0.527084 -1.3389 0.000977516 -0.999999 0.000977516 
-0.0573798 0.524584 -1.33957 0.000977516 -0.999999 0.000977516 
-0.0533918 0.521835 -1.3403 0.000977516 -0.999999 0.000977516 
-0.0494645 0.520835 -1.34057 0.000977516 -0.999999 0.000977516 
-0.0455606 0.520585 -1.34063 0.000977516 -0.999999 0.000977516 
-0.0416637 0.520585 -1.34063 0.000977516 -0.999999 0.000977516 
-0.0377879 0.521585 -1.34037 0.000977516 -0.999999 0.000977516 
-0.0339268 0.523584 -1.33983 0.000977516 -0.999999 0.000977516 
-0.0300485 0.525084 -1.33943 0.000977516 -0.999999 0.000977516 
-0.0261454 0.525334 -1.33936 0.000977516 -0.999999 0.000977516 
-0.0222288 0.524584 -1.33957 0.000977516 -0.999999 0.000977516 
-0.0183077 0.523085 -1.33997 0.000977516 -0.999999 0.000977516 
-0.0143932 0.521585 -1.34037 0.000977516 -0.999999 0.000977516 
-0.0104912 0.521085 -1.3405 0.000977516 -0.999999 0.000977516 
-0.00659222 0.520835 -1.34057 0.000977516 -0.999999 0.000977516 
-0.00269398 0.520335 -1.3407 0.000977516 -0.999999 0.000977516 
0.00120223 0.520085 -1.34077 0.000977516 -0.999999 0.000977516 
0.00509664 0.519585 -1.3409 0.000977516 -0.999999 0.000977516 
0.00899138 0.519585 -1.3409 0.000977516 -0.999999 0.000977516 
0.0128861 0.519585 -1.3409 0.000977516 -0.999999 0.000977516 
0.0167832 0.519835 -1.34083 0.000977516 -0.999999 0.000977516 
0.0206843 0.520335 -1.3407 0.000977516 -0.999999 0.000977516 
0.024591 0.521085 -1.3405 0.000977516 -0.999999 0.000977516 
0.028497 0.521585 -1.34037 0.000977516 -0.999999 0.000977516 
0.0324098 0.522335 -1.34017 0.000977516 -0.999999 0.000977516 
0.0363156 0.522585 -1.3401 0.000977516 -0.999999 0.000977516 
0.0402169 0.522585 -1.3401 0.000977516 -0.999999 0.000977516 
0.0441182 0.522585 -1.3401 0.000977516 -0.999999 0.000977516 
0.0480128 0.522335 -1.34017 0.000977516 -0.999999 0.000977516 
0.051899 0.521835 -1.3403 0.000977516 -0.999999 0.000977516 
0.0557752 0.521085 -1.3405 0.000977516 -0.999999 0.000977516 
0.0596732 0.521085 -1.3405 0.000977516 -0.999999 0.000977516 
0.0635713 0.521085 -1.3405 0.000977516 -0.999999 0.000977516 
0.0674787 0.521335 -1.34043 0.000977516 -0.999999 0.000977516 
0.0713773 0.521335 -1.34043 0.000977516 -0.999999 0.000977516 
0.0752548 0.520835 -1.34057 0.000977516 -0.999999 0.000977516 
0.0791301 0.520335 -1.3407 0.000977516 -0.999999 0.000977516 
0.0830265 0.520335 -1.3407 0.000977516 -0.999999 0.000977516 
0.0869228 0.520335 -1.3407 0.000977516 -0.999999 0.000977516 
0.0908447 0.520835 -1.34057 0.000977516 -0.999999 0.000977516 
0.0947687 0.521335 -1.34043 0.000977516 -0.999999 0.000977516 
0.0987502 0.522835 -1.34003 0.000977516 -0.999999 0.000977516 
0.103011 0.529083 -1.33836 0.000977516 -0.999999 0.000977516 
0.106972 0.529833 -1.33816 0.000977516 -0.999999 0.000977516 
0.110935 0.530583 -1.33796 0.000977516 -0.999999 0.000977516 
0.114902 0.531333 -1.33776 0.000977516 -0.999999 0.000977516 
0.118872 0.532083 -1.33756 0.000977516 -0.999999 0.000977516 
0.122845 0.532833 -1.33736 0.000977516 -0.999999 0.000977516 
0.126822 0.533582 -1.33716 0.000977516 -0.999999 0.000977516 
0.130784 0.534082 -1.33703 0.000977516 -0.999999 0.000977516 
0.134766 0.534832 -1.33683 0.000977516 -0.999999 0.000977516 
0.139003 0.538831 -1.33576 0.000977516 -0.999999 0.000977516 
0.143416 0.54483 -1.33415 0.000977516 -0.999999 0.000977516 
0.14759 0.54758 -1.33342 0.000977516 -0.999999 0.000977516 
0.151651 0.548829 -1.33309 0.000977516 -0.999999 0.000977516 
0.156232 0.556078 -1.33115 0.000977516 -0.999999 0.000977516 
0.160537 0.559827 -1.33015 0.000977516 -0.999999 0.000977516 
0.16461 0.560827 -1.32988 0.000977516 -0.999999 0.000977516 
0.16871 0.562077 -1.32955 0.000977516 -0.999999 0.000977516 
0.172816 0.563326 -1.32921 0.000977516 -0.999999 0.000977516 
0.176927 0.564576 -1.32888 0.000977516 -0.999999 0.000977516 
0.181019 0.565576 -1.32861 0.000977516 -0.999999 0.000977516 
0.185116 0.566576 -1.32834 0.000977516 -0.999999 0.000977516 
0.190431 0.579323 -1.32494 0.000977516 -0.999999 0.000977516 
0.194905 0.583572 -1.3238 0.000977516 -0.999999 0.000977516 
0.199128 0.585322 -1.32333 0.000977516 -0.999999 0.000977516 
0.203936 0.59232 -1.32146 0.000977516 -0.999999 0.000977516 
0.208298 0.59507 -1.32073 0.000977516 -0.999999 0.000977516 
0.212701 0.598069 -1.31993 0.000977516 -0.999999 0.000977516 
0.217495 0.604318 -1.31826 0.000977516 -0.999999 0.000977516 
0.221812 0.606318 -1.31772 0.000977516 -0.999999 0.000977516 
0.225987 0.607067 -1.31752 0.000977516 -0.999999 0.000977516 
0.230196 0.608067 -1.31726 0.000977516 -0.999999 0.000977516 
0.234409 0.609067 -1.31699 0.000977516 -0.999999 0.000977516 
0.238659 0.610317 -1.31665 0.000977516 -0.999999 0.000977516 
0.243044 0.612566 -1.31605 0.000977516 -0.999999 0.000977516 
0.247405 0.614566 -1.31552 0.000977516 -0.999999 0.000977516 
0.251775 0.616565 -1.31498 0.000977516 -0.999999 0.000977516 
0.25612 0.618315 -1.31452 0.000977516 -0.999999 0.000977516 
0.260646 0.621315 -1.31371 0.000977516 -0.999999 0.000977516 
0.265184 0.624314 -1.31291 0.000977516 -0.999999 0.000977516 
0.269629 0.626563 -1.31231 0.000977516 -0.999999 0.000977516 
0.273902 0.627563 -1.31204 0.000977516 -0.999999 0.000977516 
0.278107 0.628063 -1.31191 0.000977516 -0.999999 0.000977516 
0.282276 0.628313 -1.31184 0.000977516 -0.999999 0.000977516 
0.286484 0.628813 -1.31171 0.000977516 -0.999999 0.000977516 
0.290733 0.629563 -1.31151 0.000977516 -0.999999 0.000977516 
0.294946 0.630063 -1.31138 0.000977516 -0.999999 0.000977516 
0.299082 0.630063 -1.31138 0.000977516 -0.999999 0.000977516 
0.303178 0.629813 -1.31144 0.000977516 -0.999999 0.000977516 
0.307273 0.629563 -1.31151 0.000977516 -0.999999 0.000977516 
0.311367 0.629313 -1.31158 0.000977516 -0.999999 0.000977516 
0.31546 0.629063 -1.31164 0.000977516 -0.999999 0.000977516 
0.319509 0.628563 -1.31178 0.000977516 -0.999999 0.000977516 
0.323642 0.628563 -1.31178 0.000977516 -0.999999 0.000977516 
0.329811 0.640311 -1.30864 0.000977516 -0.999999 0.000977516 
0.334058 0.64081 -1.3085 0.000977516 -0.999999 0.000977516 
0.338173 0.640561 -1.30857 0.000977516 -0.999999 0.000977516 
0.342332 0.640561 -1.30857 0.000977516 -0.999999 0.000977516 
0.346309 0.639561 -1.30884 0.000977516 -0.999999 0.000977516 
0.350282 0.638561 -1.30911 0.000977516 -0.999999 0.000977516 
0.354157 0.637061 -1.30951 0.000977516 -0.999999 0.000977516 
0.35812 0.636062 -1.30977 0.000977516 -0.999999 0.000977516 
0.362269 0.636062 -1.30977 0.000977516 -0.999999 0.000977516 
0.366467 0.636311 -1.30971 0.000977516 -0.999999 0.000977516 
0.370909 0.637811 -1.30931 0.000977516 -0.999999 0.000977516 
0.375358 0.639311 -1.30891 0.000977516 -0.999999 0.000977516 
0.379714 0.640311 -1.30864 0.000977516 -0.999999 0.000977516 
0.384024 0.64106 -1.30844 0.000977516 -0.999999 0.000977516 
0.388337 0.64181 -1.30824 0.000977516 -0.999999 0.000977516 
0.392654 0.64256 -1.30804 0.000977516 -0.999999 0.000977516 
0.396921 0.64306 -1.3079 0.000977516 -0.999999 0.000977516 
0.401191 0.64356 -1.30777 0.000977516 -0.999999 0.000977516 
0.405463 0.64406 -1.30764 0.000977516 -0.999999 0.000977516 
0.409737 0.64456 -1.3075 0.000977516 -0.999999 0.000977516 
0.414014 0.64506 -1.30737 0.000977516 -0.999999 0.000977516 
0.418237 0.64531 -1.3073 0.000977516 -0.999999 0.000977516 
0.422518 0.64581 -1.30717 0.000977516 -0.999999 0.000977516 
0.426744 0.64606 -1.3071 0.000977516 -0.999999 0.000977516 
0.431028 0.646559 -1.30697 0.000977516 -0.999999 0.000977516 
0.435314 0.647059 -1.30683 0.000977516 -0.999999 0.000977516 
0.439545 0.647309 -1.30677 0.000977516 -0.999999 0.000977516 
0.443661 0.647059 -1.30683 0.000977516 -0.999999 0.000977516 
0.447893 0.647309 -1.30677 0.000977516 -0.999999 0.000977516 
0.452185 0.647809 -1.30663 0.000977516 -0.999999 0.000977516 
0.45648 0.648309 -1.3065 0.000977516 -0.999999 0.000977516 
0.460897 0.649309 -1.30623 0.000977516 -0.999999 0.000977516 
0.465318 0.650308 -1.30597 0.000977516 -0.999999 0.000977516 
0.469805 0.651558 -1.30563 0.000977516 -0.999999 0.000977516 
0.474236 0.652558 -1.30537 0.000977516 -0.999999 0.000977516 
0.478546 0.653058 -1.30523 0.000977516 -0.999999 0.000977516 
0.482859 0.653558 -1.3051 0.000977516 -0.999999 0.000977516 
0.487046 0.653558 -1.3051 0.000977516 -0.999999 0.000977516 
0.491234 0.653558 -1.3051 0.000977516 -0.999999 0.000977516 
0.495421 0.653558 -1.3051 0.000977516 -0.999999 0.000977516 
0.499739 0.654058 -1.30496 0.000977516 -0.999999 0.000977516 
0.504191 0.655058 -1.3047 0.000977516 -0.999999 0.000977516 
0.508779 0.656557 -1.3043 0.000977516 -0.999999 0.000977516 
0.51324 0.657557 -1.30403 0.000977516 -0.999999 0.000977516 
0.517571 0.658057 -1.3039 0.000977516 -0.999999 0.000977516 
0.521769 0.658057 -1.3039 0.000977516 -0.999999 0.000977516 
0.525692 0.657057 -1.30416 0.000977516 -0.999999 0.000977516 
0.528921 0.653558 -1.3051 0.000977516 -0.999999 0.000977516 
0.532553 0.651558 -1.30563 0.000977516 -0.999999 0.000977516 
0.536385 0.650308 -1.30597 0.000977516 -0.999999 0.000977516 
0.540495 0.650059 -1.30603 0.000977516 -0.999999 0.000977516 
0.544604 0.649809 -1.3061 0.000977516 -0.999999 0.000977516 
0.548783 0.649809 -1.3061 0.000977516 -0.999999 0.000977516 
0.553107 0.650308 -1.30597 0.000977516 -0.999999 0.000977516 
0.557652 0.651558 -1.30563 0.000977516 -0.999999 0.000977516 
0.562202 0.652808 -1.3053 0.000977516 -0.999999 0.000977516 
0.566535 0.653308 -1.30517 0.000977516 -0.999999 0.000977516 
0.570871 0.653808 -1.30503 0.000977516 -0.999999 0.000977516 
0.575134 0.654058 -1.30496 0.000977516 -0.999999 0.000977516 
0.579247 0.653808 -1.30503 0.000977516 -0.999999 0.000977516 
0.584349 0.656807 -1.30423 0.000977516 -0.999999 0.000977516 
0.590613 0.663556 -1.30243 0.000977516 -0.999999 0.000977516 
0.595208 0.664806 -1.30209 0.000979431 0.999999 0.000979431 
0.599498 0.665056 -1.30202 0.000979431 0.999999 0.000979431 
0.604102 0.666305 -1.30169 0.000977516 -0.999999 0.000977516 
0.608475 0.666805 -1.30156 0.000977516 -0.999999 0.000977516 
0.61293 0.667555 -1.30136 0.000977516 -0.999999 0.000977516 
0.621224 0.680302 -1.29795 0.000977516 -0.999999 0.000977516 
0.62555 0.680552 -1.29788 0.000977516 -0.999999 0.000977516 
0.629797 0.680552 -1.29788 0.000977516 -0.999999 0.000977516 
0.634125 0.680802 -1.29782 0.000977516 -0.999999 0.000977516 
0.638454 0.681052 -1.29775 0.000977516 -0.999999 0.000977516 
0.642784 0.681302 -1.29768 0.000977516 -0.999999 0.000977516 
0.647282 0.682052 -1.29748 0.000977516 -0.999999 0.000977516 
0.651783 0.682802 -1.29728 0.000977516 -0.999999 0.000977516 
0.65654 0.684302 -1.29688 0.000977516 -0.999999 0.000977516 
0.661219 0.685551 -1.29655 0.000977516 -0.999999 0.000977516 
