ply
format ascii 1.0
comment Created by CloudCompare v2.11.1 (Anoia)
comment Created 2022/01/16 17:02
obj_info Generated by CloudCompare!
element vertex 764
property float x
property float y
property float z
property float nx
property float ny
property float nz
end_header
0.033903 -0.576575 -3.54944 0.000979427 -0.999995 0.00293828 
0.0376987 -0.590572 -3.54795 0.000979427 -0.999995 0.00293828 
0.0417204 -0.591822 -3.54782 0.000979427 -0.999995 0.00293828 
0.0457243 -0.593572 -3.54763 0.000979427 -0.999995 0.00293828 
0.049492 -0.60382 -3.54654 0.000979427 -0.999995 0.00293828 
0.0534911 -0.60457 -3.54646 0.000979427 -0.999995 0.00293828 
0.0574869 -0.60532 -3.54638 0.000979427 -0.999995 0.00293828 
0.0614879 -0.60582 -3.54633 0.000979427 -0.999995 0.00293828 
0.0654866 -0.60632 -3.54628 0.000979427 -0.999995 0.00293828 
0.0694926 -0.60657 -3.54625 0.000979427 -0.999995 0.00293828 
0.0735175 -0.60632 -3.54628 0.000979427 -0.999995 0.00293828 
0.0775435 -0.60607 -3.5463 0.000979427 -0.999995 0.00293828 
0.0815928 -0.60532 -3.54638 0.000979427 -0.999995 0.00293828 
0.0856454 -0.60457 -3.54646 0.000979427 -0.999995 0.00293828 
0.0897013 -0.60382 -3.54654 0.000979427 -0.999995 0.00293828 
0.0937476 -0.60332 -3.5466 0.000979427 -0.999995 0.00293828 
0.0977829 -0.60307 -3.54662 0.000979427 -0.999995 0.00293828 
0.101819 -0.60282 -3.54665 0.000979427 -0.999995 0.00293828 
0.105842 -0.60282 -3.54665 0.000979427 -0.999995 0.00293828 
0.109851 -0.60307 -3.54662 0.000979427 -0.999995 0.00293828 
0.113873 -0.60307 -3.54662 0.000979427 -0.999995 0.00293828 
0.117896 -0.60307 -3.54662 0.000979427 -0.999995 0.00293828 
0.121918 -0.60307 -3.54662 0.000979427 -0.999995 0.00293828 
0.125941 -0.60307 -3.54662 0.000979427 -0.999995 0.00293828 
0.129963 -0.60307 -3.54662 0.000979427 -0.999995 0.00293828 
0.133986 -0.60307 -3.54662 0.000979427 -0.999995 0.00293828 
0.138665 -0.594322 -3.54755 0.000979427 -0.999995 0.00293828 
0.144095 -0.576325 -3.54947 0.000979427 -0.999995 0.00293828 
0.15125 -0.537581 -3.55359 0.000979427 -0.999995 0.00293828 
0.160307 -0.477591 -3.55998 0.000979427 -0.999995 0.00293828 
0.165964 -0.461343 -3.56171 0.000979427 -0.999995 0.00293828 
-0.171716 -0.4641 -3.56574 0 0 0 
-0.160901 -0.540837 -3.5574 0.000979427 -0.999995 0.00293828 
-0.155446 -0.556584 -3.55569 0.000979427 -0.999995 0.00293828 
-0.151101 -0.559334 -3.55539 0.000979427 -0.999995 0.00293828 
-0.146671 -0.563333 -3.55496 0.000979427 -0.999995 0.00293828 
-0.141197 -0.58133 -3.55301 0.000979427 -0.999995 0.00293828 
-0.135912 -0.597827 -3.55121 0.000979427 -0.999995 0.00293828 
-0.131861 -0.598077 -3.55119 0.000979427 -0.999995 0.00293828 
-0.12781 -0.598327 -3.55116 0.000979427 -0.999995 0.00293828 
-0.123777 -0.598327 -3.55116 0.000979427 -0.999995 0.00293828 
-0.119744 -0.598327 -3.55116 0.000979427 -0.999995 0.00293828 
-0.115695 -0.598577 -3.55113 0.000979427 -0.999995 0.00293828 
-0.111648 -0.598827 -3.55111 0.000979427 -0.999995 0.00293828 
-0.107587 -0.599327 -3.55105 0.000979427 -0.999995 0.00293828 
-0.103528 -0.599827 -3.551 0.000979427 -0.999995 0.00293828 
-0.0994442 -0.600827 -3.55089 0.000979427 -0.999995 0.00293828 
-0.0950932 -0.607076 -3.55021 0.000979427 -0.999995 0.00293828 
-0.0910174 -0.608326 -3.55007 0.000979427 -0.999995 0.00293828 
-0.08703 -0.607826 -3.55013 0.000979427 -0.999995 0.00293828 
-0.0830517 -0.607076 -3.55021 0.000979427 -0.999995 0.00293828 
-0.0790917 -0.605826 -3.55035 0.000979427 -0.999995 0.00293828 
-0.0751568 -0.603826 -3.55056 0.000979427 -0.999995 0.00293828 
-0.0711939 -0.602327 -3.55073 0.000979427 -0.999995 0.00293828 
-0.0672244 -0.600827 -3.55089 0.000979427 -0.999995 0.00293828 
-0.0632397 -0.599577 -3.55102 0.000979427 -0.999995 0.00293828 
-0.0592416 -0.598577 -3.55113 0.000979427 -0.999995 0.00293828 
-0.0552616 -0.596828 -3.55132 0.000979427 -0.999995 0.00293828 
-0.0512531 -0.595828 -3.55143 0.000979427 -0.999995 0.00293828 
-0.047253 -0.594328 -3.55159 0.000979427 -0.999995 0.00293828 
-0.0433398 -0.588829 -3.55219 0.000979427 -0.999995 0.00293828 
-0.0393708 -0.58483 -3.55263 0.000979427 -0.999995 0.00293828 
-0.0353701 -0.58158 -3.55298 0.000979427 -0.999995 0.00293828 
-0.0313635 -0.577831 -3.55339 0.000979427 -0.999995 0.00293828 
-0.0273114 -0.576081 -3.55358 0.000979427 -0.999995 0.00293828 
-0.0232392 -0.575331 -3.55366 0.000979427 -0.999995 0.00293828 
-0.0192738 -0.563833 -3.55491 0.000979427 -0.999995 0.00293828 
-0.015226 -0.556334 -3.55572 0.000979427 -0.999995 0.00293828 
-0.0112218 -0.535838 -3.55795 0.000979427 -0.999995 0.00293828 
-0.0072094 -0.493345 -3.56256 0.000979427 -0.999995 0.00293828 
-0.00294703 -0.493345 -3.56256 0.000979427 -0.999995 0.00293828 
0.00129596 -0.52209 -3.55944 0.000979427 -0.999995 0.00293828 
0.0054419 -0.540837 -3.5574 0.000979427 -0.999995 0.00293828 
0.00954877 -0.551085 -3.55629 0.000979427 -0.999995 0.00293828 
0.0136163 -0.560584 -3.55526 0.000979427 -0.999995 0.00293828 
0.0176093 -0.573581 -3.55385 0.000979427 -0.999995 0.00293828 
0.0216906 -0.574081 -3.55379 0.000979427 -0.999995 0.00293828 
0.025773 -0.574331 -3.55377 0.000979427 -0.999995 0.00293828 
0.0298504 -0.574831 -3.55371 0.000979427 -0.999995 0.00293828 
0.0339211 -0.575581 -3.55363 0.000979427 -0.999995 0.00293828 
0.0377038 -0.590329 -3.55203 0.000979427 -0.999995 0.00293828 
0.0417317 -0.591329 -3.55192 0.000979427 -0.999995 0.00293828 
0.0457676 -0.591828 -3.55187 0.000979427 -0.999995 0.00293828 
0.0497407 -0.594578 -3.55157 0.000979427 -0.999995 0.00293828 
0.0535129 -0.603826 -3.55056 0.000979427 -0.999995 0.00293828 
0.0575026 -0.604826 -3.55045 0.000979427 -0.999995 0.00293828 
0.0615046 -0.605326 -3.5504 0.000979427 -0.999995 0.00293828 
0.0655044 -0.605826 -3.55035 0.000979427 -0.999995 0.00293828 
0.0695115 -0.606076 -3.55032 0.000979427 -0.999995 0.00293828 
0.0735275 -0.606076 -3.55032 0.000979427 -0.999995 0.00293828 
0.0775646 -0.605576 -3.55037 0.000979427 -0.999995 0.00293828 
0.0816039 -0.605076 -3.55043 0.000979427 -0.999995 0.00293828 
0.085657 -0.604326 -3.55051 0.000979427 -0.999995 0.00293828 
0.0897013 -0.603826 -3.55056 0.000979427 -0.999995 0.00293828 
0.0937349 -0.603576 -3.55059 0.000979427 -0.999995 0.00293828 
0.0977697 -0.603326 -3.55062 0.000979427 -0.999995 0.00293828 
0.101806 -0.603076 -3.55064 0.000979427 -0.999995 0.00293828 
0.105828 -0.603076 -3.55064 0.000979427 -0.999995 0.00293828 
0.109851 -0.603076 -3.55064 0.000979427 -0.999995 0.00293828 
0.113873 -0.603076 -3.55064 0.000979427 -0.999995 0.00293828 
0.117896 -0.603076 -3.55064 0.000979427 -0.999995 0.00293828 
0.121935 -0.602826 -3.55067 0.000979427 -0.999995 0.00293828 
0.125958 -0.602826 -3.55067 0.000979427 -0.999995 0.00293828 
0.129999 -0.602576 -3.5507 0.000979427 -0.999995 0.00293828 
0.134022 -0.602576 -3.5507 0.000979427 -0.999995 0.00293828 
0.138796 -0.592578 -3.55178 0.000979427 -0.999995 0.00293828 
0.144191 -0.575081 -3.55368 0.000979427 -0.999995 0.00293828 
0.15242 -0.52284 -3.55936 0 0 0 
0.161632 -0.46135 -3.56604 0.000979427 -0.999995 0.00293828 
-0.174925 -0.427113 -3.57416 0 0 0 
-0.161028 -0.539343 -3.56173 0.000979427 -0.999995 0.00293828 
-0.155363 -0.55759 -3.55971 0.000979427 -0.999995 0.00293828 
-0.150981 -0.56084 -3.55935 0.000979427 -0.999995 0.00293828 
-0.146788 -0.56184 -3.55924 0.000979427 -0.999995 0.00293828 
-0.141406 -0.578587 -3.55738 0.000979427 -0.999995 0.00293828 
-0.135876 -0.598333 -3.55519 0.000979427 -0.999995 0.00293828 
-0.131843 -0.598333 -3.55519 0.000979427 -0.999995 0.00293828 
-0.12781 -0.598333 -3.55519 0.000979427 -0.999995 0.00293828 
-0.123777 -0.598333 -3.55519 0.000979427 -0.999995 0.00293828 
-0.119744 -0.598333 -3.55519 0.000979427 -0.999995 0.00293828 
-0.115695 -0.598583 -3.55516 0.000979427 -0.999995 0.00293828 
-0.111648 -0.598833 -3.55514 0.000979427 -0.999995 0.00293828 
-0.107587 -0.599333 -3.55508 0.000979427 -0.999995 0.00293828 
-0.103514 -0.600083 -3.555 0.000979427 -0.999995 0.00293828 
-0.0994442 -0.600833 -3.55491 0.000979427 -0.999995 0.00293828 
-0.0953132 -0.602833 -3.55469 0.000979427 -0.999995 0.00293828 
-0.0911661 -0.605332 -3.55442 0.000979427 -0.999995 0.00293828 
-0.0871248 -0.605832 -3.55436 0.000979427 -0.999995 0.00293828 
-0.0831308 -0.605332 -3.55442 0.000979427 -0.999995 0.00293828 
-0.0791562 -0.604332 -3.55453 0.000979427 -0.999995 0.00293828 
-0.0752181 -0.602333 -3.55475 0.000979427 -0.999995 0.00293828 
-0.0712518 -0.600833 -3.55491 0.000979427 -0.999995 0.00293828 
-0.0672608 -0.599833 -3.55502 0.000979427 -0.999995 0.00293828 
-0.0632655 -0.598833 -3.55514 0.000979427 -0.999995 0.00293828 
-0.0592737 -0.597584 -3.55527 0.000979427 -0.999995 0.00293828 
-0.0552765 -0.596334 -3.55541 0.000979427 -0.999995 0.00293828 
-0.0512739 -0.595084 -3.55555 0.000979427 -0.999995 0.00293828 
-0.0472721 -0.593584 -3.55572 0.000979427 -0.999995 0.00293828 
-0.0433164 -0.589835 -3.55613 0.000979427 -0.999995 0.00293828 
-0.0393549 -0.585586 -3.5566 0.000979427 -0.999995 0.00293828 
-0.0354128 -0.579337 -3.5573 0.000979427 -0.999995 0.00293828 
-0.031393 -0.576087 -3.55766 0.000979427 -0.999995 0.00293828 
-0.027315 -0.575837 -3.55768 0.000979427 -0.999995 0.00293828 
-0.0232423 -0.575088 -3.55777 0.000979427 -0.999995 0.00293828 
-0.0192738 -0.563839 -3.55901 0.000979427 -0.999995 0.00293828 
-0.01523 -0.555841 -3.5599 0.000979427 -0.999995 0.00293828 
-0.0112218 -0.535844 -3.56212 0.000979427 -0.999995 0.00293828 
-0.00721125 -0.492851 -3.56688 0.000979427 -0.999995 0.00293828 
-0.00294778 -0.492851 -3.56688 0.000979427 -0.999995 0.00293828 
0.00130219 -0.512848 -3.56466 0.000979427 -0.999995 0.00293828 
0.00544475 -0.539843 -3.56167 0.000979427 -0.999995 0.00293828 
0.00955382 -0.550092 -3.56054 0.000979427 -0.999995 0.00293828 
0.0136271 -0.55909 -3.55954 0.000979427 -0.999995 0.00293828 
0.0176635 -0.567839 -3.55857 0.000979427 -0.999995 0.00293828 
0.0216935 -0.573838 -3.55791 0.000979427 -0.999995 0.00293828 
0.0257696 -0.574587 -3.55782 0.000979427 -0.999995 0.00293828 
0.0298504 -0.574837 -3.5578 0.000979427 -0.999995 0.00293828 
0.0339257 -0.575337 -3.55774 0.000979427 -0.999995 0.00293828 
0.0377038 -0.590335 -3.55608 0.000979427 -0.999995 0.00293828 
0.0417373 -0.591085 -3.55599 0.000979427 -0.999995 0.00293828 
0.0457676 -0.591835 -3.55591 0.000979427 -0.999995 0.00293828 
0.0497475 -0.594334 -3.55563 0.000979427 -0.999995 0.00293828 
0.0536438 -0.599333 -3.55508 0.000979427 -0.999995 0.00293828 
0.0575338 -0.603832 -3.55458 0.000979427 -0.999995 0.00293828 
0.0615213 -0.604832 -3.55447 0.000979427 -0.999995 0.00293828 
0.0655222 -0.605332 -3.55442 0.000979427 -0.999995 0.00293828 
0.0695304 -0.605582 -3.55439 0.000979427 -0.999995 0.00293828 
0.0735375 -0.605832 -3.55436 0.000979427 -0.999995 0.00293828 
0.0775646 -0.605582 -3.55439 0.000979427 -0.999995 0.00293828 
0.0816039 -0.605082 -3.55444 0.000979427 -0.999995 0.00293828 
0.0856454 -0.604582 -3.5545 0.000979427 -0.999995 0.00293828 
0.0896891 -0.604082 -3.55455 0.000979427 -0.999995 0.00293828 
0.0937222 -0.603832 -3.55458 0.000979427 -0.999995 0.00293828 
0.0977564 -0.603583 -3.55461 0.000979427 -0.999995 0.00293828 
0.101778 -0.603583 -3.55461 0.000979427 -0.999995 0.00293828 
0.105799 -0.603583 -3.55461 0.000979427 -0.999995 0.00293828 
0.109836 -0.603333 -3.55464 0.000979427 -0.999995 0.00293828 
0.113858 -0.603333 -3.55464 0.000979427 -0.999995 0.00293828 
0.117896 -0.603083 -3.55466 0.000979427 -0.999995 0.00293828 
0.121935 -0.602833 -3.55469 0.000979427 -0.999995 0.00293828 
0.125975 -0.602583 -3.55472 0.000979427 -0.999995 0.00293828 
0.130016 -0.602333 -3.55475 0.000979427 -0.999995 0.00293828 
0.134059 -0.602083 -3.55478 0.000979427 -0.999995 0.00293828 
0.138852 -0.591835 -3.55591 0.000979427 -0.999995 0.00293828 
0.145175 -0.56234 -3.55918 0.000979427 -0.999995 0.00293828 
0.153908 -0.504099 -3.56563 0 0 0 
0.162814 -0.446859 -3.57198 0.000979427 -0.999995 0.00293828 
-0.178134 -0.390126 -3.58275 0 0 0 
-0.161134 -0.5381 -3.56603 0.000979427 -0.999995 0.00293828 
-0.155281 -0.558597 -3.56371 0.000979427 -0.999995 0.00293828 
-0.150921 -0.561596 -3.56337 0.000979427 -0.999995 0.00293828 
-0.146768 -0.562096 -3.56332 0.000979427 -0.999995 0.00293828 
-0.1415 -0.577343 -3.5616 0.000979427 -0.999995 0.00293828 
-0.135857 -0.59859 -3.55919 0.000979427 -0.999995 0.00293828 
-0.131825 -0.59859 -3.55919 0.000979427 -0.999995 0.00293828 
-0.127792 -0.59859 -3.55919 0.000979427 -0.999995 0.00293828 
-0.12376 -0.59859 -3.55919 0.000979427 -0.999995 0.00293828 
-0.119728 -0.59859 -3.55919 0.000979427 -0.999995 0.00293828 
-0.115695 -0.59859 -3.55919 0.000979427 -0.999995 0.00293828 
-0.111648 -0.59884 -3.55917 0.000979427 -0.999995 0.00293828 
-0.107587 -0.599339 -3.55911 0.000979427 -0.999995 0.00293828 
-0.103528 -0.599839 -3.55905 0.000979427 -0.999995 0.00293828 
-0.0994442 -0.600839 -3.55894 0.000979427 -0.999995 0.00293828 
-0.095352 -0.602089 -3.5588 0.000979427 -0.999995 0.00293828 
-0.0912529 -0.603589 -3.55863 0.000979427 -0.999995 0.00293828 
-0.0871959 -0.604339 -3.55854 0.000979427 -0.999995 0.00293828 
-0.0831874 -0.604089 -3.55857 0.000979427 -0.999995 0.00293828 
-0.0792208 -0.602839 -3.55871 0.000979427 -0.999995 0.00293828 
-0.0752793 -0.600839 -3.55894 0.000979427 -0.999995 0.00293828 
-0.0713002 -0.599589 -3.55908 0.000979427 -0.999995 0.00293828 
-0.0672973 -0.59884 -3.55917 0.000979427 -0.999995 0.00293828 
-0.0632997 -0.59784 -3.55928 0.000979427 -0.999995 0.00293828 
-0.0592978 -0.59684 -3.55939 0.000979427 -0.999995 0.00293828 
-0.055299 -0.59559 -3.55953 0.000979427 -0.999995 0.00293828 
-0.0512947 -0.59434 -3.55967 0.000979427 -0.999995 0.00293828 
-0.0472849 -0.593091 -3.55982 0.000979427 -0.999995 0.00293828 
-0.0433047 -0.590341 -3.56013 0.000979427 -0.999995 0.00293828 
-0.0393549 -0.585592 -3.56066 0.000979427 -0.999995 0.00293828 
-0.035446 -0.577593 -3.56157 0.000979427 -0.999995 0.00293828 
-0.0313972 -0.575844 -3.56176 0.000979427 -0.999995 0.00293828 
-0.0273224 -0.575344 -3.56182 0.000979427 -0.999995 0.00293828 
-0.0232547 -0.574094 -3.56196 0.000979427 -0.999995 0.00293828 
-0.0193071 -0.560596 -3.56349 0.000979427 -0.999995 0.00293828 
-0.015232 -0.555597 -3.56405 0.000979427 -0.999995 0.00293828 
-0.0112204 -0.536101 -3.56625 0.000979427 -0.999995 0.00293828 
-0.00728146 -0.473861 -3.57329 0.000979427 -0.999995 0.00293828 
-0.00297649 -0.473861 -3.57329 0.000979427 -0.999995 0.00293828 
0.00131585 -0.492608 -3.57117 0.000979427 -0.999995 0.00293828 
0.00546405 -0.533101 -3.56659 0.000979427 -0.999995 0.00293828 
0.00957904 -0.545099 -3.56524 0.000979427 -0.999995 0.00293828 
0.0136795 -0.551848 -3.56448 0.000979427 -0.999995 0.00293828 
0.0177199 -0.561846 -3.56335 0.000979427 -0.999995 0.00293828 
0.0216906 -0.574094 -3.56196 0.000979427 -0.999995 0.00293828 
0.0257696 -0.574594 -3.56191 0.000979427 -0.999995 0.00293828 
0.0298504 -0.574844 -3.56188 0.000979427 -0.999995 0.00293828 
0.0339302 -0.575094 -3.56185 0.000979427 -0.999995 0.00293828 
0.0377139 -0.589841 -3.56018 0.000979427 -0.999995 0.00293828 
0.0417429 -0.590841 -3.56007 0.000979427 -0.999995 0.00293828 
0.0457552 -0.592341 -3.5599 0.000979427 -0.999995 0.00293828 
0.0497206 -0.59534 -3.55956 0.000979427 -0.999995 0.00293828 
0.053651 -0.59909 -3.55914 0.000979427 -0.999995 0.00293828 
0.0575885 -0.602089 -3.5588 0.000979427 -0.999995 0.00293828 
0.0615631 -0.603589 -3.55863 0.000979427 -0.999995 0.00293828 
0.065549 -0.604589 -3.55852 0.000979427 -0.999995 0.00293828 
0.0695493 -0.605088 -3.55846 0.000979427 -0.999995 0.00293828 
0.0735575 -0.605338 -3.55843 0.000979427 -0.999995 0.00293828 
0.0775752 -0.605338 -3.55843 0.000979427 -0.999995 0.00293828 
0.081615 -0.604839 -3.55849 0.000979427 -0.999995 0.00293828 
0.0856454 -0.604589 -3.55852 0.000979427 -0.999995 0.00293828 
0.0896891 -0.604089 -3.55857 0.000979427 -0.999995 0.00293828 
0.0937094 -0.604089 -3.55857 0.000979427 -0.999995 0.00293828 
0.0977431 -0.603839 -3.5586 0.000979427 -0.999995 0.00293828 
0.101764 -0.603839 -3.5586 0.000979427 -0.999995 0.00293828 
0.105785 -0.603839 -3.5586 0.000979427 -0.999995 0.00293828 
0.109821 -0.603589 -3.55863 0.000979427 -0.999995 0.00293828 
0.113858 -0.603339 -3.55866 0.000979427 -0.999995 0.00293828 
0.117912 -0.602839 -3.55871 0.000979427 -0.999995 0.00293828 
0.121951 -0.602589 -3.55874 0.000979427 -0.999995 0.00293828 
0.126009 -0.602089 -3.5588 0.000979427 -0.999995 0.00293828 
0.130034 -0.602089 -3.5588 0.000979427 -0.999995 0.00293828 
0.134077 -0.601839 -3.55883 0.000979427 -0.999995 0.00293828 
0.138964 -0.590341 -3.56013 0.000979427 -0.999995 0.00293828 
0.146236 -0.548598 -3.56484 0.000979427 -0.999995 0.00293828 
0.155435 -0.484859 -3.57204 0.000979427 -0.999995 0.00293828 
-0.161176 -0.537607 -3.57025 0.000979427 -0.999995 0.00293828 
-0.155466 -0.556353 -3.56809 0.000979427 -0.999995 0.00293828 
-0.150921 -0.561602 -3.56749 0.000979427 -0.999995 0.00293828 
-0.146807 -0.561602 -3.56749 0.000979427 -0.999995 0.00293828 
-0.141557 -0.5766 -3.56576 0.000979427 -0.999995 0.00293828 
-0.135839 -0.598846 -3.5632 0.000979427 -0.999995 0.00293828 
-0.131807 -0.598846 -3.5632 0.000979427 -0.999995 0.00293828 
-0.127775 -0.598846 -3.5632 0.000979427 -0.999995 0.00293828 
-0.123743 -0.598846 -3.5632 0.000979427 -0.999995 0.00293828 
-0.119728 -0.598596 -3.56323 0.000979427 -0.999995 0.00293828 
-0.115695 -0.598596 -3.56323 0.000979427 -0.999995 0.00293828 
-0.111648 -0.598846 -3.5632 0.000979427 -0.999995 0.00293828 
-0.107601 -0.599096 -3.56317 0.000979427 -0.999995 0.00293828 
-0.103528 -0.599846 -3.56308 0.000979427 -0.999995 0.00293828 
-0.0994577 -0.600595 -3.56299 0.000979427 -0.999995 0.00293828 
-0.0953779 -0.601595 -3.56288 0.000979427 -0.999995 0.00293828 
-0.0913149 -0.602345 -3.56279 0.000979427 -0.999995 0.00293828 
-0.087267 -0.602845 -3.56274 0.000979427 -0.999995 0.00293828 
-0.0832552 -0.602595 -3.56276 0.000979427 -0.999995 0.00293828 
-0.0793068 -0.600845 -3.56297 0.000979427 -0.999995 0.00293828 
-0.0753508 -0.599096 -3.56317 0.000979427 -0.999995 0.00293828 
-0.0713485 -0.598346 -3.56325 0.000979427 -0.999995 0.00293828 
-0.0673429 -0.597596 -3.56334 0.000979427 -0.999995 0.00293828 
-0.063334 -0.596846 -3.56343 0.000979427 -0.999995 0.00293828 
-0.0593219 -0.596096 -3.56351 0.000979427 -0.999995 0.00293828 
-0.0553139 -0.595096 -3.56363 0.000979427 -0.999995 0.00293828 
-0.0513085 -0.593847 -3.56377 0.000979427 -0.999995 0.00293828 
-0.0473041 -0.592347 -3.56395 0.000979427 -0.999995 0.00293828 
-0.0433281 -0.589347 -3.56429 0.000979427 -0.999995 0.00293828 
-0.0393708 -0.584848 -3.56481 0.000979427 -0.999995 0.00293828 
-0.0354508 -0.57735 -3.56567 0.000979427 -0.999995 0.00293828 
-0.0314014 -0.5756 -3.56587 0.000979427 -0.999995 0.00293828 
-0.0273297 -0.57485 -3.56596 0.000979427 -0.999995 0.00293828 
-0.0233759 -0.564352 -3.56717 0.000979427 -0.999995 0.00293828 
-0.0193661 -0.554854 -3.56826 0.000979427 -0.999995 0.00293828 
-0.0152381 -0.554854 -3.56826 0.000979427 -0.999995 0.00293828 
-0.0112174 -0.536607 -3.57036 0.000979427 -0.999995 0.00293828 
-0.00733043 -0.46062 -3.57912 0.000979427 -0.999995 0.00293828 
-0.00299651 -0.46062 -3.57912 0.000979427 -0.999995 0.00293828 
0.00133709 -0.46112 -3.57906 0.000979427 -0.999995 0.00293828 
0.00552195 -0.512861 -3.5731 0.000979427 -0.999995 0.00293828 
0.00961687 -0.537607 -3.57025 0.000979427 -0.999995 0.00293828 
0.0137066 -0.548105 -3.56904 0.000979427 -0.999995 0.00293828 
0.0177435 -0.559353 -3.56774 0.000979427 -0.999995 0.00293828 
0.0217456 -0.569351 -3.56659 0.000979427 -0.999995 0.00293828 
0.0257627 -0.5751 -3.56593 0.000979427 -0.999995 0.00293828 
0.0298464 -0.5751 -3.56593 0.000979427 -0.999995 0.00293828 
0.0339257 -0.57535 -3.5659 0.000979427 -0.999995 0.00293828 
0.0377343 -0.588848 -3.56435 0.000979427 -0.999995 0.00293828 
0.0417486 -0.590597 -3.56415 0.000979427 -0.999995 0.00293828 
0.0457181 -0.593847 -3.56377 0.000979427 -0.999995 0.00293828 
0.0496735 -0.597096 -3.5634 0.000979427 -0.999995 0.00293828 
0.053651 -0.599096 -3.56317 0.000979427 -0.999995 0.00293828 
0.0576276 -0.600845 -3.56297 0.000979427 -0.999995 0.00293828 
0.0615966 -0.602595 -3.56276 0.000979427 -0.999995 0.00293828 
0.0655757 -0.603845 -3.56262 0.000979427 -0.999995 0.00293828 
0.0695682 -0.604595 -3.56253 0.000979427 -0.999995 0.00293828 
0.0735775 -0.604845 -3.5625 0.000979427 -0.999995 0.00293828 
0.0775963 -0.604845 -3.5625 0.000979427 -0.999995 0.00293828 
0.0816261 -0.604595 -3.56253 0.000979427 -0.999995 0.00293828 
0.085657 -0.604345 -3.56256 0.000979427 -0.999995 0.00293828 
0.0896891 -0.604095 -3.56259 0.000979427 -0.999995 0.00293828 
0.0937094 -0.604095 -3.56259 0.000979427 -0.999995 0.00293828 
0.0977431 -0.603845 -3.56262 0.000979427 -0.999995 0.00293828 
0.101764 -0.603845 -3.56262 0.000979427 -0.999995 0.00293828 
0.105785 -0.603845 -3.56262 0.000979427 -0.999995 0.00293828 
0.109821 -0.603595 -3.56265 0.000979427 -0.999995 0.00293828 
0.113858 -0.603345 -3.56268 0.000979427 -0.999995 0.00293828 
0.117912 -0.602845 -3.56274 0.000979427 -0.999995 0.00293828 
0.121968 -0.602345 -3.56279 0.000979427 -0.999995 0.00293828 
0.126026 -0.601845 -3.56285 0.000979427 -0.999995 0.00293828 
0.130052 -0.601845 -3.56285 0.000979427 -0.999995 0.00293828 
0.134095 -0.601595 -3.56288 0.000979427 -0.999995 0.00293828 
0.139058 -0.589098 -3.56432 0.000979427 -0.999995 0.00293828 
0.147682 -0.529858 -3.57114 0 0 0 
0.156645 -0.469619 -3.57808 0.000979427 -0.999995 0.00293828 
-0.16124 -0.536863 -3.5745 0.000979427 -0.999995 0.00293828 
-0.155693 -0.55361 -3.57254 0.000979427 -0.999995 0.00293828 
-0.150941 -0.561359 -3.57163 0.000979427 -0.999995 0.00293828 
-0.146827 -0.561359 -3.57163 0.000979427 -0.999995 0.00293828 
-0.141652 -0.575356 -3.56998 0.000979427 -0.999995 0.00293828 
-0.135839 -0.598852 -3.56723 0.000979427 -0.999995 0.00293828 
-0.131807 -0.598852 -3.56723 0.000979427 -0.999995 0.00293828 
-0.127775 -0.598852 -3.56723 0.000979427 -0.999995 0.00293828 
-0.123743 -0.598852 -3.56723 0.000979427 -0.999995 0.00293828 
-0.119728 -0.598602 -3.56726 0.000979427 -0.999995 0.00293828 
-0.115695 -0.598602 -3.56726 0.000979427 -0.999995 0.00293828 
-0.111663 -0.598602 -3.56726 0.000979427 -0.999995 0.00293828 
-0.107616 -0.598852 -3.56723 0.000979427 -0.999995 0.00293828 
-0.103556 -0.599352 -3.56717 0.000979427 -0.999995 0.00293828 
-0.0994847 -0.600102 -3.56708 0.000979427 -0.999995 0.00293828 
-0.0954167 -0.600852 -3.56699 0.000979427 -0.999995 0.00293828 
-0.0913645 -0.601352 -3.56693 0.000979427 -0.999995 0.00293828 
-0.0873262 -0.601602 -3.5669 0.000979427 -0.999995 0.00293828 
-0.0833343 -0.600852 -3.56699 0.000979427 -0.999995 0.00293828 
-0.0794036 -0.598602 -3.56726 0.000979427 -0.999995 0.00293828 
-0.0754121 -0.597602 -3.56737 0.000979427 -0.999995 0.00293828 
-0.0713968 -0.597102 -3.56743 0.000979427 -0.999995 0.00293828 
-0.0673794 -0.596602 -3.56749 0.000979427 -0.999995 0.00293828 
-0.0633683 -0.595852 -3.56758 0.000979427 -0.999995 0.00293828 
-0.0593459 -0.595353 -3.56764 0.000979427 -0.999995 0.00293828 
-0.0553364 -0.594353 -3.56775 0.000979427 -0.999995 0.00293828 
-0.0513293 -0.593103 -3.5679 0.000979427 -0.999995 0.00293828 
-0.0473552 -0.590354 -3.56822 0.000979427 -0.999995 0.00293828 
-0.0433748 -0.587354 -3.56858 0.000979427 -0.999995 0.00293828 
-0.0394078 -0.583105 -3.56907 0.000979427 -0.999995 0.00293828 
-0.0354413 -0.577856 -3.56969 0.000979427 -0.999995 0.00293828 
-0.0314182 -0.574606 -3.57007 0.000979427 -0.999995 0.00293828 
-0.0274064 -0.569607 -3.57066 0.000979427 -0.999995 0.00293828 
-0.0234941 -0.55486 -3.57239 0.000979427 -0.999995 0.00293828 
-0.0193712 -0.55436 -3.57245 0.000979427 -0.999995 0.00293828 
-0.0152421 -0.55436 -3.57245 0.000979427 -0.999995 0.00293828 
-0.0112145 -0.537113 -3.57447 0.000979427 -0.999995 0.00293828 
-0.0073332 -0.459877 -3.58354 0.000979427 -0.999995 0.00293828 
-0.00299764 -0.459877 -3.58354 0.000979427 -0.999995 0.00293828 
0.00133793 -0.459877 -3.58354 0.000979427 -0.999995 0.00293828 
0.00555484 -0.50137 -3.57867 0.000979427 -0.999995 0.00293828 
0.00964588 -0.531864 -3.57509 0.000979427 -0.999995 0.00293828 
0.0137193 -0.546361 -3.57339 0.000979427 -0.999995 0.00293828 
0.0177741 -0.55611 -3.57224 0.000979427 -0.999995 0.00293828 
0.021821 -0.562859 -3.57145 0.000979427 -0.999995 0.00293828 
0.0257593 -0.575356 -3.56998 0.000979427 -0.999995 0.00293828 
0.0298385 -0.575606 -3.56995 0.000979427 -0.999995 0.00293828 
0.0339166 -0.575856 -3.56993 0.000979427 -0.999995 0.00293828 
0.037775 -0.586854 -3.56863 0.000979427 -0.999995 0.00293828 
0.041788 -0.588854 -3.5684 0.000979427 -0.999995 0.00293828 
0.0456872 -0.595103 -3.56767 0.000979427 -0.999995 0.00293828 
0.0496533 -0.597852 -3.56734 0.000979427 -0.999995 0.00293828 
0.0536438 -0.599352 -3.56717 0.000979427 -0.999995 0.00293828 
0.0576433 -0.600352 -3.56705 0.000979427 -0.999995 0.00293828 
0.0616217 -0.601851 -3.56687 0.000979427 -0.999995 0.00293828 
0.0656024 -0.603101 -3.56673 0.000979427 -0.999995 0.00293828 
0.0695966 -0.603851 -3.56664 0.000979427 -0.999995 0.00293828 
0.0735975 -0.604351 -3.56658 0.000979427 -0.999995 0.00293828 
0.0776068 -0.604601 -3.56655 0.000979427 -0.999995 0.00293828 
0.0816372 -0.604351 -3.56658 0.000979427 -0.999995 0.00293828 
0.0856687 -0.604101 -3.56661 0.000979427 -0.999995 0.00293828 
0.0897013 -0.603851 -3.56664 0.000979427 -0.999995 0.00293828 
0.0937222 -0.603851 -3.56664 0.000979427 -0.999995 0.00293828 
0.0977431 -0.603851 -3.56664 0.000979427 -0.999995 0.00293828 
0.101778 -0.603601 -3.56667 0.000979427 -0.999995 0.00293828 
0.105799 -0.603601 -3.56667 0.000979427 -0.999995 0.00293828 
0.109836 -0.603351 -3.5667 0.000979427 -0.999995 0.00293828 
0.113873 -0.603101 -3.56673 0.000979427 -0.999995 0.00293828 
0.117928 -0.602601 -3.56679 0.000979427 -0.999995 0.00293828 
0.121985 -0.602101 -3.56684 0.000979427 -0.999995 0.00293828 
0.126044 -0.601602 -3.5669 0.000979427 -0.999995 0.00293828 
0.130087 -0.601352 -3.56693 0.000979427 -0.999995 0.00293828 
0.134113 -0.601352 -3.56693 0.000979427 -0.999995 0.00293828 
0.139246 -0.586604 -3.56866 0.000979427 -0.999995 0.00293828 
0.14938 -0.507868 -3.5779 0 0 0 
0.157775 -0.455378 -3.58406 0.000979427 -0.999995 0.00293828 
-0.163142 -0.514374 -3.58136 0.000979427 -0.999995 0.00293828 
-0.156166 -0.547868 -3.57735 0.000979427 -0.999995 0.00293828 
-0.151362 -0.556116 -3.57637 0.000979427 -0.999995 0.00293828 
-0.146866 -0.560865 -3.5758 0.000979427 -0.999995 0.00293828 
-0.141709 -0.574613 -3.57416 0.000979427 -0.999995 0.00293828 
-0.135839 -0.598858 -3.57126 0.000979427 -0.999995 0.00293828 
-0.131807 -0.598858 -3.57126 0.000979427 -0.999995 0.00293828 
-0.127775 -0.598858 -3.57126 0.000979427 -0.999995 0.00293828 
-0.123743 -0.598858 -3.57126 0.000979427 -0.999995 0.00293828 
-0.119728 -0.598608 -3.57129 0.000979427 -0.999995 0.00293828 
-0.115695 -0.598608 -3.57129 0.000979427 -0.999995 0.00293828 
-0.111678 -0.598358 -3.57132 0.000979427 -0.999995 0.00293828 
-0.107645 -0.598358 -3.57132 0.000979427 -0.999995 0.00293828 
-0.103598 -0.598608 -3.57129 0.000979427 -0.999995 0.00293828 
-0.0995386 -0.599108 -3.57123 0.000979427 -0.999995 0.00293828 
-0.0954685 -0.599858 -3.57114 0.000979427 -0.999995 0.00293828 
-0.091414 -0.600358 -3.57108 0.000979427 -0.999995 0.00293828 
-0.0873973 -0.600108 -3.57111 0.000979427 -0.999995 0.00293828 
-0.0834473 -0.598358 -3.57132 0.000979427 -0.999995 0.00293828 
-0.0794789 -0.596859 -3.5715 0.000979427 -0.999995 0.00293828 
-0.0754733 -0.596109 -3.57159 0.000979427 -0.999995 0.00293828 
-0.0714451 -0.595859 -3.57162 0.000979427 -0.999995 0.00293828 
-0.0674249 -0.595359 -3.57168 0.000979427 -0.999995 0.00293828 
-0.0634026 -0.594859 -3.57174 0.000979427 -0.999995 0.00293828 
-0.059378 -0.594359 -3.57179 0.000979427 -0.999995 0.00293828 
-0.0553663 -0.593359 -3.57191 0.000979427 -0.999995 0.00293828 
-0.0514125 -0.59011 -3.5723 0.000979427 -0.999995 0.00293828 
-0.0474446 -0.586861 -3.57269 0.000979427 -0.999995 0.00293828 
-0.0434274 -0.585111 -3.5729 0.000979427 -0.999995 0.00293828 
-0.039429 -0.582111 -3.57326 0.000979427 -0.999995 0.00293828 
-0.0354413 -0.577862 -3.57377 0.000979427 -0.999995 0.00293828 
-0.0314392 -0.573363 -3.5743 0.000979427 -0.999995 0.00293828 
-0.0274759 -0.564865 -3.57532 0.000979427 -0.999995 0.00293828 
-0.0235003 -0.554366 -3.57658 0.000979427 -0.999995 0.00293828 
-0.0193738 -0.554116 -3.57661 0.000979427 -0.999995 0.00293828 
-0.0152441 -0.554116 -3.57661 0.000979427 -0.999995 0.00293828 
-0.011213 -0.53737 -3.57861 0.000979427 -0.999995 0.00293828 
-0.00733413 -0.459634 -3.5879 0.000979427 -0.999995 0.00293828 
-0.00299802 -0.459634 -3.5879 0.000979427 -0.999995 0.00293828 
0.0013381 -0.459634 -3.5879 0.000979427 -0.999995 0.00293828 
0.00558414 -0.491128 -3.58414 0.000979427 -0.999995 0.00293828 
0.00965723 -0.529621 -3.57953 0.000979427 -0.999995 0.00293828 
0.0137211 -0.546118 -3.57756 0.000979427 -0.999995 0.00293828 
0.0177741 -0.556116 -3.57637 0.000979427 -0.999995 0.00293828 
0.0218326 -0.561865 -3.57568 0.000979427 -0.999995 0.00293828 
0.0257558 -0.575613 -3.57404 0.000979427 -0.999995 0.00293828 
0.0298345 -0.575863 -3.57401 0.000979427 -0.999995 0.00293828 
0.033912 -0.576113 -3.57398 0.000979427 -0.999995 0.00293828 
0.0378105 -0.585111 -3.5729 0.000979427 -0.999995 0.00293828 
0.0418556 -0.585861 -3.57281 0.000979427 -0.999995 0.00293828 
0.0456996 -0.594609 -3.57176 0.000979427 -0.999995 0.00293828 
0.0496601 -0.597608 -3.57141 0.000979427 -0.999995 0.00293828 
0.0536583 -0.598858 -3.57126 0.000979427 -0.999995 0.00293828 
0.0576511 -0.600108 -3.57111 0.000979427 -0.999995 0.00293828 
0.0616384 -0.601358 -3.57096 0.000979427 -0.999995 0.00293828 
0.0656291 -0.602358 -3.57084 0.000979427 -0.999995 0.00293828 
0.0696155 -0.603357 -3.57072 0.000979427 -0.999995 0.00293828 
0.0736175 -0.603857 -3.57066 0.000979427 -0.999995 0.00293828 
0.0776279 -0.604107 -3.57063 0.000979427 -0.999995 0.00293828 
0.0816594 -0.603857 -3.57066 0.000979427 -0.999995 0.00293828 
0.0856803 -0.603857 -3.57066 0.000979427 -0.999995 0.00293828 
0.0897134 -0.603607 -3.57069 0.000979427 -0.999995 0.00293828 
0.0937476 -0.603357 -3.57072 0.000979427 -0.999995 0.00293828 
0.0977697 -0.603357 -3.57072 0.000979427 -0.999995 0.00293828 
0.101792 -0.603357 -3.57072 0.000979427 -0.999995 0.00293828 
0.105828 -0.603107 -3.57075 0.000979427 -0.999995 0.00293828 
0.109866 -0.602858 -3.57078 0.000979427 -0.999995 0.00293828 
0.113904 -0.602607 -3.57081 0.000979427 -0.999995 0.00293828 
0.11796 -0.602108 -3.57087 0.000979427 -0.999995 0.00293828 
0.122001 -0.601858 -3.5709 0.000979427 -0.999995 0.00293828 
0.126061 -0.601358 -3.57096 0.000979427 -0.999995 0.00293828 
0.130105 -0.601108 -3.57099 0.000979427 -0.999995 0.00293828 
0.13415 -0.600858 -3.57102 0.000979427 -0.999995 0.00293828 
0.139452 -0.583861 -3.57305 0.000979427 -0.999995 0.00293828 
0.151019 -0.486629 -3.58467 0.000979427 -0.999995 0.00293828 
0.157775 -0.455385 -3.58841 0.000979427 -0.999995 0.00293828 
-0.166629 -0.473138 -3.59059 0 0 0 
-0.157072 -0.536876 -3.58283 0.000979427 -0.999995 0.00293828 
-0.151843 -0.550124 -3.58122 0.000979427 -0.999995 0.00293828 
-0.146924 -0.560122 -3.58 0.000979427 -0.999995 0.00293828 
-0.141747 -0.574119 -3.5783 0.000979427 -0.999995 0.00293828 
-0.135968 -0.597115 -3.5755 0.000979427 -0.999995 0.00293828 
-0.131807 -0.598864 -3.57529 0.000979427 -0.999995 0.00293828 
-0.127775 -0.598864 -3.57529 0.000979427 -0.999995 0.00293828 
-0.123743 -0.598864 -3.57529 0.000979427 -0.999995 0.00293828 
-0.119728 -0.598614 -3.57532 0.000979427 -0.999995 0.00293828 
-0.115711 -0.598365 -3.57535 0.000979427 -0.999995 0.00293828 
-0.111693 -0.598115 -3.57538 0.000979427 -0.999995 0.00293828 
-0.107674 -0.597865 -3.57541 0.000979427 -0.999995 0.00293828 
-0.10364 -0.597865 -3.57541 0.000979427 -0.999995 0.00293828 
-0.0995926 -0.598115 -3.57538 0.000979427 -0.999995 0.00293828 
-0.0955462 -0.598365 -3.57535 0.000979427 -0.999995 0.00293828 
-0.0914884 -0.598864 -3.57529 0.000979427 -0.999995 0.00293828 
-0.0875158 -0.597615 -3.57544 0.000979427 -0.999995 0.00293828 
-0.083549 -0.596115 -3.57562 0.000979427 -0.999995 0.00293828 
-0.0795327 -0.595615 -3.57568 0.000979427 -0.999995 0.00293828 
-0.0755142 -0.595115 -3.57574 0.000979427 -0.999995 0.00293828 
-0.0714934 -0.594615 -3.5758 0.000979427 -0.999995 0.00293828 
-0.0674705 -0.594115 -3.57587 0.000979427 -0.999995 0.00293828 
-0.0634454 -0.593616 -3.57593 0.000979427 -0.999995 0.00293828 
-0.0594262 -0.592866 -3.57602 0.000979427 -0.999995 0.00293828 
-0.055471 -0.589866 -3.57638 0.000979427 -0.999995 0.00293828 
-0.0515027 -0.586867 -3.57675 0.000979427 -0.999995 0.00293828 
-0.0474765 -0.585617 -3.5769 0.000979427 -0.999995 0.00293828 
-0.0434508 -0.584117 -3.57708 0.000979427 -0.999995 0.00293828 
-0.0394396 -0.581618 -3.57739 0.000979427 -0.999995 0.00293828 
-0.0354698 -0.576369 -3.57803 0.000979427 -0.999995 0.00293828 
-0.0314896 -0.57037 -3.57876 0.000979427 -0.999995 0.00293828 
-0.0274941 -0.563621 -3.57958 0.000979427 -0.999995 0.00293828 
-0.0235034 -0.554123 -3.58073 0.000979427 -0.999995 0.00293828 
-0.0193738 -0.554123 -3.58073 0.000979427 -0.999995 0.00293828 
-0.0152482 -0.553623 -3.58079 0.000979427 -0.999995 0.00293828 
-0.0112718 -0.527378 -3.58399 0.000979427 -0.999995 0.00293828 
-0.0073369 -0.458891 -3.59233 0.000979427 -0.999995 0.00293828 
-0.00299953 -0.458641 -3.59236 0.000979427 -0.999995 0.00293828 
0.00134029 -0.456391 -3.59263 0.000979427 -0.999995 0.00293828 
0.00561345 -0.480887 -3.58965 0.000979427 -0.999995 0.00293828 
0.00966479 -0.528128 -3.5839 0.000979427 -0.999995 0.00293828 
0.0137265 -0.545375 -3.5818 0.000979427 -0.999995 0.00293828 
0.0177741 -0.556123 -3.58049 0.000979427 -0.999995 0.00293828 
0.0218413 -0.561122 -3.57988 0.000979427 -0.999995 0.00293828 
0.0257558 -0.575619 -3.57812 0.000979427 -0.999995 0.00293828 
0.0298345 -0.575869 -3.57809 0.000979427 -0.999995 0.00293828 
0.033844 -0.579868 -3.5776 0.000979427 -0.999995 0.00293828 
0.0378309 -0.584117 -3.57708 0.000979427 -0.999995 0.00293828 
0.0418837 -0.584617 -3.57702 0.000979427 -0.999995 0.00293828 
0.0459035 -0.586367 -3.57681 0.000979427 -0.999995 0.00293828 
0.0496735 -0.597115 -3.5755 0.000979427 -0.999995 0.00293828 
0.0536728 -0.598365 -3.57535 0.000979427 -0.999995 0.00293828 
0.0576667 -0.599614 -3.5752 0.000979427 -0.999995 0.00293828 
0.0616551 -0.600864 -3.57504 0.000979427 -0.999995 0.00293828 
0.065647 -0.601864 -3.57492 0.000979427 -0.999995 0.00293828 
0.0696439 -0.602614 -3.57483 0.000979427 -0.999995 0.00293828 
0.0736475 -0.603114 -3.57477 0.000979427 -0.999995 0.00293828 
0.0776596 -0.603364 -3.57474 0.000979427 -0.999995 0.00293828 
0.0816816 -0.603364 -3.57474 0.000979427 -0.999995 0.00293828 
0.0857036 -0.603364 -3.57474 0.000979427 -0.999995 0.00293828 
0.0897378 -0.603114 -3.57477 0.000979427 -0.999995 0.00293828 
0.0937731 -0.602864 -3.5748 0.000979427 -0.999995 0.00293828 
0.0977962 -0.602864 -3.5748 0.000979427 -0.999995 0.00293828 
0.101833 -0.602614 -3.57483 0.000979427 -0.999995 0.00293828 
0.105857 -0.602614 -3.57483 0.000979427 -0.999995 0.00293828 
0.109895 -0.602364 -3.57486 0.000979427 -0.999995 0.00293828 
0.113935 -0.602114 -3.57489 0.000979427 -0.999995 0.00293828 
0.117976 -0.601864 -3.57492 0.000979427 -0.999995 0.00293828 
0.122034 -0.601364 -3.57498 0.000979427 -0.999995 0.00293828 
0.126078 -0.601114 -3.57501 0.000979427 -0.999995 0.00293828 
0.130122 -0.600864 -3.57504 0.000979427 -0.999995 0.00293828 
0.134423 -0.597115 -3.5755 0.000979427 -0.999995 0.00293828 
0.140801 -0.565871 -3.5793 0.000979427 -0.999995 0.00293828 
0.152273 -0.470389 -3.59093 0.000979427 -0.999995 0.00293828 
-0.170814 -0.423654 -3.60103 0 0 0 
-0.158884 -0.514887 -3.58972 0.000979427 -0.999995 0.00293828 
-0.152163 -0.546131 -3.58585 0.000979427 -0.999995 0.00293828 
-0.147022 -0.558878 -3.58427 0.000979427 -0.999995 0.00293828 
-0.141785 -0.573626 -3.58244 0.000979427 -0.999995 0.00293828 
-0.136704 -0.587123 -3.58077 0.000979427 -0.999995 0.00293828 
-0.131825 -0.598621 -3.57935 0.000979427 -0.999995 0.00293828 
-0.127792 -0.598621 -3.57935 0.000979427 -0.999995 0.00293828 
-0.12376 -0.598621 -3.57935 0.000979427 -0.999995 0.00293828 
-0.119728 -0.598621 -3.57935 0.000979427 -0.999995 0.00293828 
-0.115711 -0.598371 -3.57938 0.000979427 -0.999995 0.00293828 
-0.111708 -0.597871 -3.57944 0.000979427 -0.999995 0.00293828 
-0.107703 -0.597371 -3.5795 0.000979427 -0.999995 0.00293828 
-0.103682 -0.597121 -3.57953 0.000979427 -0.999995 0.00293828 
-0.0996735 -0.596621 -3.5796 0.000979427 -0.999995 0.00293828 
-0.0956497 -0.596371 -3.57963 0.000979427 -0.999995 0.00293828 
-0.0916372 -0.595871 -3.57969 0.000979427 -0.999995 0.00293828 
-0.0876224 -0.595371 -3.57975 0.000979427 -0.999995 0.00293828 
-0.0836056 -0.594872 -3.57981 0.000979427 -0.999995 0.00293828 
-0.0795757 -0.594622 -3.57984 0.000979427 -0.999995 0.00293828 
-0.075555 -0.594122 -3.57991 0.000979427 -0.999995 0.00293828 
-0.0715321 -0.593622 -3.57997 0.000979427 -0.999995 0.00293828 
-0.0675161 -0.592872 -3.58006 0.000979427 -0.999995 0.00293828 
-0.0634969 -0.592122 -3.58015 0.000979427 -0.999995 0.00293828 
-0.0595064 -0.590372 -3.58037 0.000979427 -0.999995 0.00293828 
-0.0555383 -0.587623 -3.58071 0.000979427 -0.999995 0.00293828 
-0.0515235 -0.586123 -3.5809 0.000979427 -0.999995 0.00293828 
-0.0474957 -0.584873 -3.58105 0.000979427 -0.999995 0.00293828 
-0.0434624 -0.583624 -3.58121 0.000979427 -0.999995 0.00293828 
-0.0394555 -0.580874 -3.58155 0.000979427 -0.999995 0.00293828 
-0.0355172 -0.573876 -3.58241 0.000979427 -0.999995 0.00293828 
-0.0315568 -0.566377 -3.58334 0.000979427 -0.999995 0.00293828 
-0.0275344 -0.560878 -3.58402 0.000979427 -0.999995 0.00293828 
-0.0235034 -0.554129 -3.58486 0.000979427 -0.999995 0.00293828 
-0.0193763 -0.553879 -3.58489 0.000979427 -0.999995 0.00293828 
-0.0152865 -0.54888 -3.58551 0.000979427 -0.999995 0.00293828 
-0.0112718 -0.527384 -3.58818 0.000979427 -0.999995 0.00293828 
-0.00733967 -0.458148 -3.59676 0.000979427 -0.999995 0.00293828 
-0.00305014 -0.425154 -3.60084 0.000979427 -0.999995 0.00293828 
0.00135158 -0.439651 -3.59905 0.000979427 -0.999995 0.00293828 
0.00567707 -0.458647 -3.59669 0.000979427 -0.999995 0.00293828 
0.00967236 -0.526634 -3.58827 0.000979427 -0.999995 0.00293828 
0.013732 -0.544631 -3.58604 0.000979427 -0.999995 0.00293828 
0.0177764 -0.555879 -3.58464 0.000979427 -0.999995 0.00293828 
0.0218558 -0.559878 -3.58415 0.000979427 -0.999995 0.00293828 
0.0257627 -0.575125 -3.58226 0.000979427 -0.999995 0.00293828 
0.0298265 -0.576375 -3.5821 0.000979427 -0.999995 0.00293828 
0.0337895 -0.582874 -3.5813 0.000979427 -0.999995 0.00293828 
0.0378411 -0.583624 -3.58121 0.000979427 -0.999995 0.00293828 
0.0419006 -0.583874 -3.58118 0.000979427 -0.999995 0.00293828 
0.0459405 -0.584873 -3.58105 0.000979427 -0.999995 0.00293828 
0.0497139 -0.595621 -3.57972 0.000979427 -0.999995 0.00293828 
0.0537092 -0.597121 -3.57953 0.000979427 -0.999995 0.00293828 
0.0576902 -0.598871 -3.57932 0.000979427 -0.999995 0.00293828 
0.0616718 -0.60037 -3.57913 0.000979427 -0.999995 0.00293828 
0.0656648 -0.60137 -3.57901 0.000979427 -0.999995 0.00293828 
0.0696628 -0.60212 -3.57891 0.000979427 -0.999995 0.00293828 
0.0736675 -0.60262 -3.57885 0.000979427 -0.999995 0.00293828 
0.0776807 -0.60287 -3.57882 0.000979427 -0.999995 0.00293828 
0.0817038 -0.60287 -3.57882 0.000979427 -0.999995 0.00293828 
0.0857385 -0.60262 -3.57885 0.000979427 -0.999995 0.00293828 
0.0897622 -0.60262 -3.57885 0.000979427 -0.999995 0.00293828 
0.0937986 -0.60237 -3.57888 0.000979427 -0.999995 0.00293828 
0.0978228 -0.60237 -3.57888 0.000979427 -0.999995 0.00293828 
0.101861 -0.60212 -3.57891 0.000979427 -0.999995 0.00293828 
0.105886 -0.60212 -3.57891 0.000979427 -0.999995 0.00293828 
0.10991 -0.60212 -3.57891 0.000979427 -0.999995 0.00293828 
0.113951 -0.60187 -3.57895 0.000979427 -0.999995 0.00293828 
0.118008 -0.60137 -3.57901 0.000979427 -0.999995 0.00293828 
0.122051 -0.60112 -3.57904 0.000979427 -0.999995 0.00293828 
0.126095 -0.60087 -3.57907 0.000979427 -0.999995 0.00293828 
0.130158 -0.60037 -3.57913 0.000979427 -0.999995 0.00293828 
0.135478 -0.582624 -3.58133 0.000979427 -0.999995 0.00293828 
0.142263 -0.546381 -3.58582 0.000979427 -0.999995 0.00293828 
0.153507 -0.454398 -3.59722 0.000979427 -0.999995 0.00293828 
-0.173815 -0.388168 -3.60992 0.000979427 -0.999995 0.00293828 
-0.162281 -0.473651 -3.59914 0 0 0 
-0.152845 -0.537639 -3.59107 0.000979427 -0.999995 0.00293828 
-0.147041 -0.558635 -3.58842 0.000979427 -0.999995 0.00293828 
-0.141804 -0.573382 -3.58656 0.000979427 -0.999995 0.00293828 
-0.136777 -0.586129 -3.58495 0.000979427 -0.999995 0.00293828 
-0.131861 -0.598127 -3.58344 0.000979427 -0.999995 0.00293828 
-0.127792 -0.598627 -3.58338 0.000979427 -0.999995 0.00293828 
-0.12376 -0.598627 -3.58338 0.000979427 -0.999995 0.00293828 
-0.119728 -0.598627 -3.58338 0.000979427 -0.999995 0.00293828 
-0.115711 -0.598377 -3.58341 0.000979427 -0.999995 0.00293828 
-0.111723 -0.597627 -3.5835 0.000979427 -0.999995 0.00293828 
-0.107718 -0.597127 -3.58357 0.000979427 -0.999995 0.00293828 
-0.103724 -0.596377 -3.58366 0.000979427 -0.999995 0.00293828 
-0.0997275 -0.595628 -3.58376 0.000979427 -0.999995 0.00293828 
-0.0957144 -0.595128 -3.58382 0.000979427 -0.999995 0.00293828 
-0.0916867 -0.594878 -3.58385 0.000979427 -0.999995 0.00293828 
-0.087658 -0.594628 -3.58388 0.000979427 -0.999995 0.00293828 
-0.0836282 -0.594378 -3.58391 0.000979427 -0.999995 0.00293828 
-0.079608 -0.593878 -3.58398 0.000979427 -0.999995 0.00293828 
-0.0755856 -0.593378 -3.58404 0.000979427 -0.999995 0.00293828 
-0.0715708 -0.592628 -3.58414 0.000979427 -0.999995 0.00293828 
-0.0675526 -0.591878 -3.58423 0.000979427 -0.999995 0.00293828 
-0.0635483 -0.590629 -3.58439 0.000979427 -0.999995 0.00293828 
-0.0595546 -0.588879 -3.58461 0.000979427 -0.999995 0.00293828 
-0.0555533 -0.587129 -3.58483 0.000979427 -0.999995 0.00293828 
-0.0515373 -0.58563 -3.58502 0.000979427 -0.999995 0.00293828 
-0.0475021 -0.58463 -3.58514 0.000979427 -0.999995 0.00293828 
-0.0434624 -0.58363 -3.58527 0.000979427 -0.999995 0.00293828 
-0.0395349 -0.577131 -3.58609 0.000979427 -0.999995 0.00293828 
-0.0355505 -0.572132 -3.58672 0.000979427 -0.999995 0.00293828 
-0.0316156 -0.562884 -3.58789 0.000979427 -0.999995 0.00293828 
-0.0276221 -0.554885 -3.58889 0.000979427 -0.999995 0.00293828 
-0.0235034 -0.554136 -3.58899 0.000979427 -0.999995 0.00293828 
-0.0193738 -0.554136 -3.58899 0.000979427 -0.999995 0.00293828 
-0.0153087 -0.546137 -3.59 0.000979427 -0.999995 0.00293828 
-0.0112718 -0.527391 -3.59236 0.000979427 -0.999995 0.00293828 
-0.00729717 -0.469652 -3.59964 0.000979427 -0.999995 0.00293828 
-0.00305014 -0.42516 -3.60525 0.000979427 -0.999995 0.00293828 
0.00136153 -0.424911 -3.60528 0.000979427 -0.999995 0.00293828 
0.00573068 -0.439908 -3.60339 0.000979427 -0.999995 0.00293828 
0.00968119 -0.524891 -3.59268 0.000979427 -0.999995 0.00293828 
0.0137356 -0.544138 -3.59025 0.000979427 -0.999995 0.00293828 
0.0177788 -0.555635 -3.5888 0.000979427 -0.999995 0.00293828 
0.0218674 -0.558885 -3.58839 0.000979427 -0.999995 0.00293828 
0.0257799 -0.573882 -3.5865 0.000979427 -0.999995 0.00293828 
0.0297387 -0.58188 -3.58549 0.000979427 -0.999995 0.00293828 
0.033794 -0.58263 -3.5854 0.000979427 -0.999995 0.00293828 
0.0378512 -0.58313 -3.58533 0.000979427 -0.999995 0.00293828 
0.0419062 -0.58363 -3.58527 0.000979427 -0.999995 0.00293828 
0.0459467 -0.58463 -3.58514 0.000979427 -0.999995 0.00293828 
0.0497811 -0.593128 -3.58407 0.000979427 -0.999995 0.00293828 
0.0537892 -0.594378 -3.58391 0.000979427 -0.999995 0.00293828 
0.0577761 -0.596127 -3.58369 0.000979427 -0.999995 0.00293828 
0.0617053 -0.599377 -3.58328 0.000979427 -0.999995 0.00293828 
0.0656826 -0.600876 -3.58309 0.000979427 -0.999995 0.00293828 
0.0696817 -0.601626 -3.583 0.000979427 -0.999995 0.00293828 
0.0736976 -0.601876 -3.58297 0.000979427 -0.999995 0.00293828 
0.0777123 -0.602126 -3.58294 0.000979427 -0.999995 0.00293828 
0.0817371 -0.602126 -3.58294 0.000979427 -0.999995 0.00293828 
0.0857618 -0.602126 -3.58294 0.000979427 -0.999995 0.00293828 
0.0897987 -0.601876 -3.58297 0.000979427 -0.999995 0.00293828 
0.093824 -0.601876 -3.58297 0.000979427 -0.999995 0.00293828 
0.0978493 -0.601876 -3.58297 0.000979427 -0.999995 0.00293828 
0.101875 -0.601876 -3.58297 0.000979427 -0.999995 0.00293828 
0.1059 -0.601876 -3.58297 0.000979427 -0.999995 0.00293828 
0.109925 -0.601876 -3.58297 0.000979427 -0.999995 0.00293828 
0.113966 -0.601626 -3.583 0.000979427 -0.999995 0.00293828 
0.118008 -0.601376 -3.58303 0.000979427 -0.999995 0.00293828 
0.122051 -0.601126 -3.58306 0.000979427 -0.999995 0.00293828 
0.126112 -0.600627 -3.58313 0.000979427 -0.999995 0.00293828 
0.13044 -0.596377 -3.58366 0.000979427 -0.999995 0.00293828 
0.135969 -0.575881 -3.58625 0.000979427 -0.999995 0.00293828 
0.144287 -0.519392 -3.59337 0 0 0 
0.153565 -0.453655 -3.60166 0.000979427 -0.999995 0.00293828 
-0.175506 -0.368179 -3.61697 0.000979427 -0.999995 0.00293828 
-0.166378 -0.423918 -3.60982 0 0 0 
-0.154609 -0.515649 -3.59806 0.000979427 -0.999995 0.00293828 
-0.14708 -0.558141 -3.5926 0.000979427 -0.999995 0.00293828 
-0.141804 -0.573388 -3.59065 0.000979427 -0.999995 0.00293828 
-0.136833 -0.585386 -3.58911 0.000979427 -0.999995 0.00293828 
-0.1327 -0.586386 -3.58898 0.000979427 -0.999995 0.00293828 
-0.12781 -0.598383 -3.58744 0.000979427 -0.999995 0.00293828 
-0.12376 -0.598633 -3.58741 0.000979427 -0.999995 0.00293828 
-0.119728 -0.598633 -3.58741 0.000979427 -0.999995 0.00293828 
-0.115711 -0.598383 -3.58744 0.000979427 -0.999995 0.00293828 
-0.111708 -0.597883 -3.58751 0.000979427 -0.999995 0.00293828 
-0.107732 -0.596884 -3.58763 0.000979427 -0.999995 0.00293828 
-0.103752 -0.595884 -3.58776 0.000979427 -0.999995 0.00293828 
-0.0997544 -0.595134 -3.58786 0.000979427 -0.999995 0.00293828 
-0.0957403 -0.594634 -3.58792 0.000979427 -0.999995 0.00293828 
-0.0917115 -0.594384 -3.58795 0.000979427 -0.999995 0.00293828 
-0.0876817 -0.594134 -3.58799 0.000979427 -0.999995 0.00293828 
-0.0836508 -0.593884 -3.58802 0.000979427 -0.999995 0.00293828 
-0.0796295 -0.593384 -3.58808 0.000979427 -0.999995 0.00293828 
-0.0756061 -0.592884 -3.58815 0.000979427 -0.999995 0.00293828 
-0.0715901 -0.592135 -3.58824 0.000979427 -0.999995 0.00293828 
-0.0675891 -0.590885 -3.5884 0.000979427 -0.999995 0.00293828 
-0.0635826 -0.589635 -3.58856 0.000979427 -0.999995 0.00293828 
-0.0595867 -0.587885 -3.58879 0.000979427 -0.999995 0.00293828 
-0.0555682 -0.586636 -3.58895 0.000979427 -0.999995 0.00293828 
-0.0515512 -0.585136 -3.58914 0.000979427 -0.999995 0.00293828 
-0.0475084 -0.584386 -3.58924 0.000979427 -0.999995 0.00293828 
-0.0434683 -0.583386 -3.58937 0.000979427 -0.999995 0.00293828 
-0.0395455 -0.576638 -3.59023 0.000979427 -0.999995 0.00293828 
-0.035541 -0.572638 -3.59074 0.000979427 -0.999995 0.00293828 
-0.031645 -0.561141 -3.59222 0.000979427 -0.999995 0.00293828 
-0.0276257 -0.554642 -3.59305 0.000979427 -0.999995 0.00293828 
-0.0235003 -0.554392 -3.59308 0.000979427 -0.999995 0.00293828 
-0.0193712 -0.554392 -3.59308 0.000979427 -0.999995 0.00293828 
-0.0153127 -0.545644 -3.59421 0.000979427 -0.999995 0.00293828 
-0.0112733 -0.527147 -3.59658 0.000979427 -0.999995 0.00293828 
-0.00721217 -0.492654 -3.60101 0.000979427 -0.999995 0.00293828 
-0.00305127 -0.424417 -3.60976 0.000979427 -0.999995 0.00293828 
0.00137097 -0.41092 -3.61149 0.000979427 -0.999995 0.00293828 
0.005775 -0.424417 -3.60976 0.000979427 -0.999995 0.00293828 
0.00968875 -0.523398 -3.59706 0.000979427 -0.999995 0.00293828 
0.0137374 -0.543894 -3.59443 0.000979427 -0.999995 0.00293828 
0.0177953 -0.553892 -3.59315 0.000979427 -0.999995 0.00293828 
0.0218819 -0.557641 -3.59267 0.000979427 -0.999995 0.00293828 
0.0258075 -0.571889 -3.59084 0.000979427 -0.999995 0.00293828 
0.0297387 -0.581887 -3.58956 0.000979427 -0.999995 0.00293828 
